0,1,2
-0.3036160133960574,-0.5026006759012837,-3.09529645686827
-0.3036160133960574,-0.5026006759012837,2.0648599753110437
-0.3036160133960574,-0.5026006759012837,0.6064729787200496
-0.3036160133960574,-0.5026006759012837,-0.02107942856054829
-0.3036160133960574,-0.5026006759012837,-0.600782378959116
-0.3036160133960574,-0.5026006759012837,-1.0997592525864428
-0.3036160133960574,-0.5026006759012837,1.176522279339168
-0.3036160133960574,-0.5026006759012837,2.030287233848179
-0.3036160133960574,-3.09529645686827,2.0648599753110437
-0.3036160133960574,-3.09529645686827,0.6064729787200496
-0.3036160133960574,-3.09529645686827,-0.02107942856054829
-0.3036160133960574,-3.09529645686827,-0.600782378959116
-0.3036160133960574,-3.09529645686827,-1.0997592525864428
-0.3036160133960574,-3.09529645686827,1.176522279339168
-0.3036160133960574,-3.09529645686827,2.030287233848179
-0.3036160133960574,2.0648599753110437,0.6064729787200496
-0.3036160133960574,2.0648599753110437,-0.02107942856054829
-0.3036160133960574,2.0648599753110437,-0.600782378959116
-0.3036160133960574,2.0648599753110437,-1.0997592525864428
-0.3036160133960574,2.0648599753110437,1.176522279339168
-0.3036160133960574,2.0648599753110437,2.030287233848179
-0.3036160133960574,0.6064729787200496,1.176522279339168
-0.3036160133960574,0.6064729787200496,2.030287233848179
-0.3036160133960574,0.6064729787200496,-0.02107942856054829
-0.3036160133960574,0.6064729787200496,-0.600782378959116
-0.3036160133960574,0.6064729787200496,-1.0997592525864428
-0.3036160133960574,-0.02107942856054829,1.176522279339168
-0.3036160133960574,-0.02107942856054829,2.030287233848179
-0.3036160133960574,-0.02107942856054829,-0.600782378959116
-0.3036160133960574,-0.02107942856054829,-1.0997592525864428
-0.3036160133960574,-0.600782378959116,1.176522279339168
-0.3036160133960574,-0.600782378959116,2.030287233848179
-0.3036160133960574,-0.600782378959116,-1.0997592525864428
-0.3036160133960574,-1.0997592525864428,1.176522279339168
-0.3036160133960574,-1.0997592525864428,2.030287233848179
-0.3036160133960574,1.176522279339168,2.030287233848179
-0.5026006759012837,-3.09529645686827,2.0648599753110437
-0.5026006759012837,-3.09529645686827,0.6064729787200496
-0.5026006759012837,-3.09529645686827,-0.02107942856054829
-0.5026006759012837,-3.09529645686827,-0.600782378959116
-0.5026006759012837,-3.09529645686827,-1.0997592525864428
-0.5026006759012837,-3.09529645686827,1.176522279339168
-0.5026006759012837,-3.09529645686827,2.030287233848179
-0.5026006759012837,2.0648599753110437,0.6064729787200496
-0.5026006759012837,2.0648599753110437,-0.02107942856054829
-0.5026006759012837,2.0648599753110437,-0.600782378959116
-0.5026006759012837,2.0648599753110437,-1.0997592525864428
-0.5026006759012837,2.0648599753110437,1.176522279339168
-0.5026006759012837,2.0648599753110437,2.030287233848179
-0.5026006759012837,0.6064729787200496,1.176522279339168
-0.5026006759012837,0.6064729787200496,2.030287233848179
-0.5026006759012837,0.6064729787200496,-0.02107942856054829
-0.5026006759012837,0.6064729787200496,-0.600782378959116
-0.5026006759012837,0.6064729787200496,-1.0997592525864428
-0.5026006759012837,-0.02107942856054829,1.176522279339168
-0.5026006759012837,-0.02107942856054829,2.030287233848179
-0.5026006759012837,-0.02107942856054829,-0.600782378959116
-0.5026006759012837,-0.02107942856054829,-1.0997592525864428
-0.5026006759012837,-0.600782378959116,1.176522279339168
-0.5026006759012837,-0.600782378959116,2.030287233848179
-0.5026006759012837,-0.600782378959116,-1.0997592525864428
-0.5026006759012837,-1.0997592525864428,1.176522279339168
-0.5026006759012837,-1.0997592525864428,2.030287233848179
-0.5026006759012837,1.176522279339168,2.030287233848179
-3.09529645686827,2.0648599753110437,0.6064729787200496
-3.09529645686827,2.0648599753110437,-0.02107942856054829
-3.09529645686827,2.0648599753110437,-0.600782378959116
-3.09529645686827,2.0648599753110437,-1.0997592525864428
-3.09529645686827,2.0648599753110437,1.176522279339168
-3.09529645686827,2.0648599753110437,2.030287233848179
-3.09529645686827,0.6064729787200496,1.176522279339168
-3.09529645686827,0.6064729787200496,2.030287233848179
-3.09529645686827,0.6064729787200496,-0.02107942856054829
-3.09529645686827,0.6064729787200496,-0.600782378959116
-3.09529645686827,0.6064729787200496,-1.0997592525864428
-3.09529645686827,-0.02107942856054829,1.176522279339168
-3.09529645686827,-0.02107942856054829,2.030287233848179
-3.09529645686827,-0.02107942856054829,-0.600782378959116
-3.09529645686827,-0.02107942856054829,-1.0997592525864428
-3.09529645686827,-0.600782378959116,1.176522279339168
-3.09529645686827,-0.600782378959116,2.030287233848179
-3.09529645686827,-0.600782378959116,-1.0997592525864428
-3.09529645686827,-1.0997592525864428,1.176522279339168
-3.09529645686827,-1.0997592525864428,2.030287233848179
-3.09529645686827,1.176522279339168,2.030287233848179
2.0648599753110437,0.6064729787200496,1.176522279339168
2.0648599753110437,0.6064729787200496,2.030287233848179
2.0648599753110437,0.6064729787200496,-0.02107942856054829
2.0648599753110437,0.6064729787200496,-0.600782378959116
2.0648599753110437,0.6064729787200496,-1.0997592525864428
2.0648599753110437,-0.02107942856054829,1.176522279339168
2.0648599753110437,-0.02107942856054829,2.030287233848179
2.0648599753110437,-0.02107942856054829,-0.600782378959116
2.0648599753110437,-0.02107942856054829,-1.0997592525864428
2.0648599753110437,-0.600782378959116,1.176522279339168
2.0648599753110437,-0.600782378959116,2.030287233848179
2.0648599753110437,-0.600782378959116,-1.0997592525864428
2.0648599753110437,-1.0997592525864428,1.176522279339168
2.0648599753110437,-1.0997592525864428,2.030287233848179
2.0648599753110437,1.176522279339168,2.030287233848179
0.6064729787200496,1.176522279339168,2.030287233848179
0.6064729787200496,-0.02107942856054829,1.176522279339168
0.6064729787200496,-0.02107942856054829,2.030287233848179
0.6064729787200496,-0.02107942856054829,-0.600782378959116
0.6064729787200496,-0.02107942856054829,-1.0997592525864428
0.6064729787200496,-0.600782378959116,1.176522279339168
0.6064729787200496,-0.600782378959116,2.030287233848179
0.6064729787200496,-0.600782378959116,-1.0997592525864428
0.6064729787200496,-1.0997592525864428,1.176522279339168
0.6064729787200496,-1.0997592525864428,2.030287233848179
-0.02107942856054829,1.176522279339168,2.030287233848179
-0.02107942856054829,-0.600782378959116,1.176522279339168
-0.02107942856054829,-0.600782378959116,2.030287233848179
-0.02107942856054829,-0.600782378959116,-1.0997592525864428
-0.02107942856054829,-1.0997592525864428,1.176522279339168
-0.02107942856054829,-1.0997592525864428,2.030287233848179
-0.600782378959116,1.176522279339168,2.030287233848179
-0.600782378959116,-1.0997592525864428,1.176522279339168
-0.600782378959116,-1.0997592525864428,2.030287233848179
-1.0997592525864428,1.176522279339168,2.030287233848179
