0,1,2
-0.26425468818551295,0.8122200191066583,-1.5235353445973112
-0.26425468818551295,0.8122200191066583,0.869257204119195
-0.26425468818551295,0.8122200191066583,-0.5255074996873357
-0.26425468818551295,0.8122200191066583,-1.335597443075704
-0.26425468818551295,0.8122200191066583,0.8178644107938171
-0.26425468818551295,0.8122200191066583,1.621180381281166
-0.26425468818551295,0.8122200191066583,-1.1651285643524987
-0.26425468818551295,0.8122200191066583,0.45898514818606184
-0.26425468818551295,-1.5235353445973112,0.869257204119195
-0.26425468818551295,-1.5235353445973112,-0.5255074996873357
-0.26425468818551295,-1.5235353445973112,-1.335597443075704
-0.26425468818551295,-1.5235353445973112,0.8178644107938171
-0.26425468818551295,-1.5235353445973112,1.621180381281166
-0.26425468818551295,-1.5235353445973112,-1.1651285643524987
-0.26425468818551295,-1.5235353445973112,0.45898514818606184
-0.26425468818551295,0.869257204119195,-0.5255074996873357
-0.26425468818551295,0.869257204119195,-1.335597443075704
-0.26425468818551295,0.869257204119195,0.8178644107938171
-0.26425468818551295,0.869257204119195,1.621180381281166
-0.26425468818551295,0.869257204119195,-1.1651285643524987
-0.26425468818551295,0.869257204119195,0.45898514818606184
-0.26425468818551295,-0.5255074996873357,-1.1651285643524987
-0.26425468818551295,-0.5255074996873357,0.45898514818606184
-0.26425468818551295,-0.5255074996873357,-1.335597443075704
-0.26425468818551295,-0.5255074996873357,0.8178644107938171
-0.26425468818551295,-0.5255074996873357,1.621180381281166
-0.26425468818551295,-1.335597443075704,-1.1651285643524987
-0.26425468818551295,-1.335597443075704,0.45898514818606184
-0.26425468818551295,-1.335597443075704,0.8178644107938171
-0.26425468818551295,-1.335597443075704,1.621180381281166
-0.26425468818551295,0.8178644107938171,-1.1651285643524987
-0.26425468818551295,0.8178644107938171,0.45898514818606184
-0.26425468818551295,0.8178644107938171,1.621180381281166
-0.26425468818551295,1.621180381281166,-1.1651285643524987
-0.26425468818551295,1.621180381281166,0.45898514818606184
-0.26425468818551295,-1.1651285643524987,0.45898514818606184
0.8122200191066583,-1.5235353445973112,0.869257204119195
0.8122200191066583,-1.5235353445973112,-0.5255074996873357
0.8122200191066583,-1.5235353445973112,-1.335597443075704
0.8122200191066583,-1.5235353445973112,0.8178644107938171
0.8122200191066583,-1.5235353445973112,1.621180381281166
0.8122200191066583,-1.5235353445973112,-1.1651285643524987
0.8122200191066583,-1.5235353445973112,0.45898514818606184
0.8122200191066583,0.869257204119195,-0.5255074996873357
0.8122200191066583,0.869257204119195,-1.335597443075704
0.8122200191066583,0.869257204119195,0.8178644107938171
0.8122200191066583,0.869257204119195,1.621180381281166
0.8122200191066583,0.869257204119195,-1.1651285643524987
0.8122200191066583,0.869257204119195,0.45898514818606184
0.8122200191066583,-0.5255074996873357,-1.1651285643524987
0.8122200191066583,-0.5255074996873357,0.45898514818606184
0.8122200191066583,-0.5255074996873357,-1.335597443075704
0.8122200191066583,-0.5255074996873357,0.8178644107938171
0.8122200191066583,-0.5255074996873357,1.621180381281166
0.8122200191066583,-1.335597443075704,-1.1651285643524987
0.8122200191066583,-1.335597443075704,0.45898514818606184
0.8122200191066583,-1.335597443075704,0.8178644107938171
0.8122200191066583,-1.335597443075704,1.621180381281166
0.8122200191066583,0.8178644107938171,-1.1651285643524987
0.8122200191066583,0.8178644107938171,0.45898514818606184
0.8122200191066583,0.8178644107938171,1.621180381281166
0.8122200191066583,1.621180381281166,-1.1651285643524987
0.8122200191066583,1.621180381281166,0.45898514818606184
0.8122200191066583,-1.1651285643524987,0.45898514818606184
-1.5235353445973112,0.869257204119195,-0.5255074996873357
-1.5235353445973112,0.869257204119195,-1.335597443075704
-1.5235353445973112,0.869257204119195,0.8178644107938171
-1.5235353445973112,0.869257204119195,1.621180381281166
-1.5235353445973112,0.869257204119195,-1.1651285643524987
-1.5235353445973112,0.869257204119195,0.45898514818606184
-1.5235353445973112,-0.5255074996873357,-1.1651285643524987
-1.5235353445973112,-0.5255074996873357,0.45898514818606184
-1.5235353445973112,-0.5255074996873357,-1.335597443075704
-1.5235353445973112,-0.5255074996873357,0.8178644107938171
-1.5235353445973112,-0.5255074996873357,1.621180381281166
-1.5235353445973112,-1.335597443075704,-1.1651285643524987
-1.5235353445973112,-1.335597443075704,0.45898514818606184
-1.5235353445973112,-1.335597443075704,0.8178644107938171
-1.5235353445973112,-1.335597443075704,1.621180381281166
-1.5235353445973112,0.8178644107938171,-1.1651285643524987
-1.5235353445973112,0.8178644107938171,0.45898514818606184
-1.5235353445973112,0.8178644107938171,1.621180381281166
-1.5235353445973112,1.621180381281166,-1.1651285643524987
-1.5235353445973112,1.621180381281166,0.45898514818606184
-1.5235353445973112,-1.1651285643524987,0.45898514818606184
0.869257204119195,-0.5255074996873357,-1.1651285643524987
0.869257204119195,-0.5255074996873357,0.45898514818606184
0.869257204119195,-0.5255074996873357,-1.335597443075704
0.869257204119195,-0.5255074996873357,0.8178644107938171
0.869257204119195,-0.5255074996873357,1.621180381281166
0.869257204119195,-1.335597443075704,-1.1651285643524987
0.869257204119195,-1.335597443075704,0.45898514818606184
0.869257204119195,-1.335597443075704,0.8178644107938171
0.869257204119195,-1.335597443075704,1.621180381281166
0.869257204119195,0.8178644107938171,-1.1651285643524987
0.869257204119195,0.8178644107938171,0.45898514818606184
0.869257204119195,0.8178644107938171,1.621180381281166
0.869257204119195,1.621180381281166,-1.1651285643524987
0.869257204119195,1.621180381281166,0.45898514818606184
0.869257204119195,-1.1651285643524987,0.45898514818606184
-0.5255074996873357,-1.1651285643524987,0.45898514818606184
-0.5255074996873357,-1.335597443075704,-1.1651285643524987
-0.5255074996873357,-1.335597443075704,0.45898514818606184
-0.5255074996873357,-1.335597443075704,0.8178644107938171
-0.5255074996873357,-1.335597443075704,1.621180381281166
-0.5255074996873357,0.8178644107938171,-1.1651285643524987
-0.5255074996873357,0.8178644107938171,0.45898514818606184
-0.5255074996873357,0.8178644107938171,1.621180381281166
-0.5255074996873357,1.621180381281166,-1.1651285643524987
-0.5255074996873357,1.621180381281166,0.45898514818606184
-1.335597443075704,-1.1651285643524987,0.45898514818606184
-1.335597443075704,0.8178644107938171,-1.1651285643524987
-1.335597443075704,0.8178644107938171,0.45898514818606184
-1.335597443075704,0.8178644107938171,1.621180381281166
-1.335597443075704,1.621180381281166,-1.1651285643524987
-1.335597443075704,1.621180381281166,0.45898514818606184
0.8178644107938171,-1.1651285643524987,0.45898514818606184
0.8178644107938171,1.621180381281166,-1.1651285643524987
0.8178644107938171,1.621180381281166,0.45898514818606184
1.621180381281166,-1.1651285643524987,0.45898514818606184
