0,1,2
1.0754825444792726,-1.4463803817430552,0.49994963439920315
1.0754825444792726,-1.4463803817430552,1.0053684829891052
1.0754825444792726,-1.4463803817430552,-0.23444157464498608
1.0754825444792726,-1.4463803817430552,1.6131340456467658
1.0754825444792726,-1.4463803817430552,-0.13035009988525062
1.0754825444792726,-1.4463803817430552,0.5913530581422628
1.0754825444792726,-1.4463803817430552,1.1665308597817834
1.0754825444792726,-1.4463803817430552,-1.6160205271648838
1.0754825444792726,0.49994963439920315,1.0053684829891052
1.0754825444792726,0.49994963439920315,-0.23444157464498608
1.0754825444792726,0.49994963439920315,1.6131340456467658
1.0754825444792726,0.49994963439920315,-0.13035009988525062
1.0754825444792726,0.49994963439920315,0.5913530581422628
1.0754825444792726,0.49994963439920315,1.1665308597817834
1.0754825444792726,0.49994963439920315,-1.6160205271648838
1.0754825444792726,1.0053684829891052,-0.23444157464498608
1.0754825444792726,1.0053684829891052,1.6131340456467658
1.0754825444792726,1.0053684829891052,-0.13035009988525062
1.0754825444792726,1.0053684829891052,0.5913530581422628
1.0754825444792726,1.0053684829891052,1.1665308597817834
1.0754825444792726,1.0053684829891052,-1.6160205271648838
1.0754825444792726,-0.23444157464498608,1.1665308597817834
1.0754825444792726,-0.23444157464498608,-1.6160205271648838
1.0754825444792726,-0.23444157464498608,1.6131340456467658
1.0754825444792726,-0.23444157464498608,-0.13035009988525062
1.0754825444792726,-0.23444157464498608,0.5913530581422628
1.0754825444792726,1.6131340456467658,1.1665308597817834
1.0754825444792726,1.6131340456467658,-1.6160205271648838
1.0754825444792726,1.6131340456467658,-0.13035009988525062
1.0754825444792726,1.6131340456467658,0.5913530581422628
1.0754825444792726,-0.13035009988525062,1.1665308597817834
1.0754825444792726,-0.13035009988525062,-1.6160205271648838
1.0754825444792726,-0.13035009988525062,0.5913530581422628
1.0754825444792726,0.5913530581422628,1.1665308597817834
1.0754825444792726,0.5913530581422628,-1.6160205271648838
1.0754825444792726,1.1665308597817834,-1.6160205271648838
-1.4463803817430552,0.49994963439920315,1.0053684829891052
-1.4463803817430552,0.49994963439920315,-0.23444157464498608
-1.4463803817430552,0.49994963439920315,1.6131340456467658
-1.4463803817430552,0.49994963439920315,-0.13035009988525062
-1.4463803817430552,0.49994963439920315,0.5913530581422628
-1.4463803817430552,0.49994963439920315,1.1665308597817834
-1.4463803817430552,0.49994963439920315,-1.6160205271648838
-1.4463803817430552,1.0053684829891052,-0.23444157464498608
-1.4463803817430552,1.0053684829891052,1.6131340456467658
-1.4463803817430552,1.0053684829891052,-0.13035009988525062
-1.4463803817430552,1.0053684829891052,0.5913530581422628
-1.4463803817430552,1.0053684829891052,1.1665308597817834
-1.4463803817430552,1.0053684829891052,-1.6160205271648838
-1.4463803817430552,-0.23444157464498608,1.1665308597817834
-1.4463803817430552,-0.23444157464498608,-1.6160205271648838
-1.4463803817430552,-0.23444157464498608,1.6131340456467658
-1.4463803817430552,-0.23444157464498608,-0.13035009988525062
-1.4463803817430552,-0.23444157464498608,0.5913530581422628
-1.4463803817430552,1.6131340456467658,1.1665308597817834
-1.4463803817430552,1.6131340456467658,-1.6160205271648838
-1.4463803817430552,1.6131340456467658,-0.13035009988525062
-1.4463803817430552,1.6131340456467658,0.5913530581422628
-1.4463803817430552,-0.13035009988525062,1.1665308597817834
-1.4463803817430552,-0.13035009988525062,-1.6160205271648838
-1.4463803817430552,-0.13035009988525062,0.5913530581422628
-1.4463803817430552,0.5913530581422628,1.1665308597817834
-1.4463803817430552,0.5913530581422628,-1.6160205271648838
-1.4463803817430552,1.1665308597817834,-1.6160205271648838
0.49994963439920315,1.0053684829891052,-0.23444157464498608
0.49994963439920315,1.0053684829891052,1.6131340456467658
0.49994963439920315,1.0053684829891052,-0.13035009988525062
0.49994963439920315,1.0053684829891052,0.5913530581422628
0.49994963439920315,1.0053684829891052,1.1665308597817834
0.49994963439920315,1.0053684829891052,-1.6160205271648838
0.49994963439920315,-0.23444157464498608,1.1665308597817834
0.49994963439920315,-0.23444157464498608,-1.6160205271648838
0.49994963439920315,-0.23444157464498608,1.6131340456467658
0.49994963439920315,-0.23444157464498608,-0.13035009988525062
0.49994963439920315,-0.23444157464498608,0.5913530581422628
0.49994963439920315,1.6131340456467658,1.1665308597817834
0.49994963439920315,1.6131340456467658,-1.6160205271648838
0.49994963439920315,1.6131340456467658,-0.13035009988525062
0.49994963439920315,1.6131340456467658,0.5913530581422628
0.49994963439920315,-0.13035009988525062,1.1665308597817834
0.49994963439920315,-0.13035009988525062,-1.6160205271648838
0.49994963439920315,-0.13035009988525062,0.5913530581422628
0.49994963439920315,0.5913530581422628,1.1665308597817834
0.49994963439920315,0.5913530581422628,-1.6160205271648838
0.49994963439920315,1.1665308597817834,-1.6160205271648838
1.0053684829891052,-0.23444157464498608,1.1665308597817834
1.0053684829891052,-0.23444157464498608,-1.6160205271648838
1.0053684829891052,-0.23444157464498608,1.6131340456467658
1.0053684829891052,-0.23444157464498608,-0.13035009988525062
1.0053684829891052,-0.23444157464498608,0.5913530581422628
1.0053684829891052,1.6131340456467658,1.1665308597817834
1.0053684829891052,1.6131340456467658,-1.6160205271648838
1.0053684829891052,1.6131340456467658,-0.13035009988525062
1.0053684829891052,1.6131340456467658,0.5913530581422628
1.0053684829891052,-0.13035009988525062,1.1665308597817834
1.0053684829891052,-0.13035009988525062,-1.6160205271648838
1.0053684829891052,-0.13035009988525062,0.5913530581422628
1.0053684829891052,0.5913530581422628,1.1665308597817834
1.0053684829891052,0.5913530581422628,-1.6160205271648838
1.0053684829891052,1.1665308597817834,-1.6160205271648838
-0.23444157464498608,1.1665308597817834,-1.6160205271648838
-0.23444157464498608,1.6131340456467658,1.1665308597817834
-0.23444157464498608,1.6131340456467658,-1.6160205271648838
-0.23444157464498608,1.6131340456467658,-0.13035009988525062
-0.23444157464498608,1.6131340456467658,0.5913530581422628
-0.23444157464498608,-0.13035009988525062,1.1665308597817834
-0.23444157464498608,-0.13035009988525062,-1.6160205271648838
-0.23444157464498608,-0.13035009988525062,0.5913530581422628
-0.23444157464498608,0.5913530581422628,1.1665308597817834
-0.23444157464498608,0.5913530581422628,-1.6160205271648838
1.6131340456467658,1.1665308597817834,-1.6160205271648838
1.6131340456467658,-0.13035009988525062,1.1665308597817834
1.6131340456467658,-0.13035009988525062,-1.6160205271648838
1.6131340456467658,-0.13035009988525062,0.5913530581422628
1.6131340456467658,0.5913530581422628,1.1665308597817834
1.6131340456467658,0.5913530581422628,-1.6160205271648838
-0.13035009988525062,1.1665308597817834,-1.6160205271648838
-0.13035009988525062,0.5913530581422628,1.1665308597817834
-0.13035009988525062,0.5913530581422628,-1.6160205271648838
0.5913530581422628,1.1665308597817834,-1.6160205271648838
