0,1,2
-0.35881157858438195,-0.24804605627916235,0.11245018894061834
-0.35881157858438195,-0.24804605627916235,0.23712757717559824
-0.35881157858438195,-0.24804605627916235,-0.3380785382868146
-0.35881157858438195,-0.24804605627916235,0.41240038383260835
-0.35881157858438195,-0.24804605627916235,0.8425336614503579
-0.35881157858438195,-0.24804605627916235,1.1143328978424525
-0.35881157858438195,-0.24804605627916235,-1.1152971504285136
-0.35881157858438195,-0.24804605627916235,1.8973033871539937
-0.35881157858438195,0.11245018894061834,0.23712757717559824
-0.35881157858438195,0.11245018894061834,-0.3380785382868146
-0.35881157858438195,0.11245018894061834,0.41240038383260835
-0.35881157858438195,0.11245018894061834,0.8425336614503579
-0.35881157858438195,0.11245018894061834,1.1143328978424525
-0.35881157858438195,0.11245018894061834,-1.1152971504285136
-0.35881157858438195,0.11245018894061834,1.8973033871539937
-0.35881157858438195,0.23712757717559824,-0.3380785382868146
-0.35881157858438195,0.23712757717559824,0.41240038383260835
-0.35881157858438195,0.23712757717559824,0.8425336614503579
-0.35881157858438195,0.23712757717559824,1.1143328978424525
-0.35881157858438195,0.23712757717559824,-1.1152971504285136
-0.35881157858438195,0.23712757717559824,1.8973033871539937
-0.35881157858438195,-0.3380785382868146,-1.1152971504285136
-0.35881157858438195,-0.3380785382868146,1.8973033871539937
-0.35881157858438195,-0.3380785382868146,0.41240038383260835
-0.35881157858438195,-0.3380785382868146,0.8425336614503579
-0.35881157858438195,-0.3380785382868146,1.1143328978424525
-0.35881157858438195,0.41240038383260835,-1.1152971504285136
-0.35881157858438195,0.41240038383260835,1.8973033871539937
-0.35881157858438195,0.41240038383260835,0.8425336614503579
-0.35881157858438195,0.41240038383260835,1.1143328978424525
-0.35881157858438195,0.8425336614503579,-1.1152971504285136
-0.35881157858438195,0.8425336614503579,1.8973033871539937
-0.35881157858438195,0.8425336614503579,1.1143328978424525
-0.35881157858438195,1.1143328978424525,-1.1152971504285136
-0.35881157858438195,1.1143328978424525,1.8973033871539937
-0.35881157858438195,-1.1152971504285136,1.8973033871539937
-0.24804605627916235,0.11245018894061834,0.23712757717559824
-0.24804605627916235,0.11245018894061834,-0.3380785382868146
-0.24804605627916235,0.11245018894061834,0.41240038383260835
-0.24804605627916235,0.11245018894061834,0.8425336614503579
-0.24804605627916235,0.11245018894061834,1.1143328978424525
-0.24804605627916235,0.11245018894061834,-1.1152971504285136
-0.24804605627916235,0.11245018894061834,1.8973033871539937
-0.24804605627916235,0.23712757717559824,-0.3380785382868146
-0.24804605627916235,0.23712757717559824,0.41240038383260835
-0.24804605627916235,0.23712757717559824,0.8425336614503579
-0.24804605627916235,0.23712757717559824,1.1143328978424525
-0.24804605627916235,0.23712757717559824,-1.1152971504285136
-0.24804605627916235,0.23712757717559824,1.8973033871539937
-0.24804605627916235,-0.3380785382868146,-1.1152971504285136
-0.24804605627916235,-0.3380785382868146,1.8973033871539937
-0.24804605627916235,-0.3380785382868146,0.41240038383260835
-0.24804605627916235,-0.3380785382868146,0.8425336614503579
-0.24804605627916235,-0.3380785382868146,1.1143328978424525
-0.24804605627916235,0.41240038383260835,-1.1152971504285136
-0.24804605627916235,0.41240038383260835,1.8973033871539937
-0.24804605627916235,0.41240038383260835,0.8425336614503579
-0.24804605627916235,0.41240038383260835,1.1143328978424525
-0.24804605627916235,0.8425336614503579,-1.1152971504285136
-0.24804605627916235,0.8425336614503579,1.8973033871539937
-0.24804605627916235,0.8425336614503579,1.1143328978424525
-0.24804605627916235,1.1143328978424525,-1.1152971504285136
-0.24804605627916235,1.1143328978424525,1.8973033871539937
-0.24804605627916235,-1.1152971504285136,1.8973033871539937
0.11245018894061834,0.23712757717559824,-0.3380785382868146
0.11245018894061834,0.23712757717559824,0.41240038383260835
0.11245018894061834,0.23712757717559824,0.8425336614503579
0.11245018894061834,0.23712757717559824,1.1143328978424525
0.11245018894061834,0.23712757717559824,-1.1152971504285136
0.11245018894061834,0.23712757717559824,1.8973033871539937
0.11245018894061834,-0.3380785382868146,-1.1152971504285136
0.11245018894061834,-0.3380785382868146,1.8973033871539937
0.11245018894061834,-0.3380785382868146,0.41240038383260835
0.11245018894061834,-0.3380785382868146,0.8425336614503579
0.11245018894061834,-0.3380785382868146,1.1143328978424525
0.11245018894061834,0.41240038383260835,-1.1152971504285136
0.11245018894061834,0.41240038383260835,1.8973033871539937
0.11245018894061834,0.41240038383260835,0.8425336614503579
0.11245018894061834,0.41240038383260835,1.1143328978424525
0.11245018894061834,0.8425336614503579,-1.1152971504285136
0.11245018894061834,0.8425336614503579,1.8973033871539937
0.11245018894061834,0.8425336614503579,1.1143328978424525
0.11245018894061834,1.1143328978424525,-1.1152971504285136
0.11245018894061834,1.1143328978424525,1.8973033871539937
0.11245018894061834,-1.1152971504285136,1.8973033871539937
0.23712757717559824,-0.3380785382868146,-1.1152971504285136
0.23712757717559824,-0.3380785382868146,1.8973033871539937
0.23712757717559824,-0.3380785382868146,0.41240038383260835
0.23712757717559824,-0.3380785382868146,0.8425336614503579
0.23712757717559824,-0.3380785382868146,1.1143328978424525
0.23712757717559824,0.41240038383260835,-1.1152971504285136
0.23712757717559824,0.41240038383260835,1.8973033871539937
0.23712757717559824,0.41240038383260835,0.8425336614503579
0.23712757717559824,0.41240038383260835,1.1143328978424525
0.23712757717559824,0.8425336614503579,-1.1152971504285136
0.23712757717559824,0.8425336614503579,1.8973033871539937
0.23712757717559824,0.8425336614503579,1.1143328978424525
0.23712757717559824,1.1143328978424525,-1.1152971504285136
0.23712757717559824,1.1143328978424525,1.8973033871539937
0.23712757717559824,-1.1152971504285136,1.8973033871539937
-0.3380785382868146,-1.1152971504285136,1.8973033871539937
-0.3380785382868146,0.41240038383260835,-1.1152971504285136
-0.3380785382868146,0.41240038383260835,1.8973033871539937
-0.3380785382868146,0.41240038383260835,0.8425336614503579
-0.3380785382868146,0.41240038383260835,1.1143328978424525
-0.3380785382868146,0.8425336614503579,-1.1152971504285136
-0.3380785382868146,0.8425336614503579,1.8973033871539937
-0.3380785382868146,0.8425336614503579,1.1143328978424525
-0.3380785382868146,1.1143328978424525,-1.1152971504285136
-0.3380785382868146,1.1143328978424525,1.8973033871539937
0.41240038383260835,-1.1152971504285136,1.8973033871539937
0.41240038383260835,0.8425336614503579,-1.1152971504285136
0.41240038383260835,0.8425336614503579,1.8973033871539937
0.41240038383260835,0.8425336614503579,1.1143328978424525
0.41240038383260835,1.1143328978424525,-1.1152971504285136
0.41240038383260835,1.1143328978424525,1.8973033871539937
0.8425336614503579,-1.1152971504285136,1.8973033871539937
0.8425336614503579,1.1143328978424525,-1.1152971504285136
0.8425336614503579,1.1143328978424525,1.8973033871539937
1.1143328978424525,-1.1152971504285136,1.8973033871539937
