0,1,2
0.13264287898417856,0.9811669408512299,0.24945615845529298
0.13264287898417856,0.9811669408512299,-0.640378813203295
0.13264287898417856,0.9811669408512299,-0.7632725106985012
0.13264287898417856,0.9811669408512299,0.679766587749584
0.13264287898417856,0.9811669408512299,-1.131454024841747
0.13264287898417856,0.9811669408512299,1.8507249518939493
0.13264287898417856,0.9811669408512299,-1.196696890621036
0.13264287898417856,0.9811669408512299,0.5302231460011273
0.13264287898417856,0.24945615845529298,-0.640378813203295
0.13264287898417856,0.24945615845529298,-0.7632725106985012
0.13264287898417856,0.24945615845529298,0.679766587749584
0.13264287898417856,0.24945615845529298,-1.131454024841747
0.13264287898417856,0.24945615845529298,1.8507249518939493
0.13264287898417856,0.24945615845529298,-1.196696890621036
0.13264287898417856,0.24945615845529298,0.5302231460011273
0.13264287898417856,-0.640378813203295,-0.7632725106985012
0.13264287898417856,-0.640378813203295,0.679766587749584
0.13264287898417856,-0.640378813203295,-1.131454024841747
0.13264287898417856,-0.640378813203295,1.8507249518939493
0.13264287898417856,-0.640378813203295,-1.196696890621036
0.13264287898417856,-0.640378813203295,0.5302231460011273
0.13264287898417856,-0.7632725106985012,-1.196696890621036
0.13264287898417856,-0.7632725106985012,0.5302231460011273
0.13264287898417856,-0.7632725106985012,0.679766587749584
0.13264287898417856,-0.7632725106985012,-1.131454024841747
0.13264287898417856,-0.7632725106985012,1.8507249518939493
0.13264287898417856,0.679766587749584,-1.196696890621036
0.13264287898417856,0.679766587749584,0.5302231460011273
0.13264287898417856,0.679766587749584,-1.131454024841747
0.13264287898417856,0.679766587749584,1.8507249518939493
0.13264287898417856,-1.131454024841747,-1.196696890621036
0.13264287898417856,-1.131454024841747,0.5302231460011273
0.13264287898417856,-1.131454024841747,1.8507249518939493
0.13264287898417856,1.8507249518939493,-1.196696890621036
0.13264287898417856,1.8507249518939493,0.5302231460011273
0.13264287898417856,-1.196696890621036,0.5302231460011273
0.9811669408512299,0.24945615845529298,-0.640378813203295
0.9811669408512299,0.24945615845529298,-0.7632725106985012
0.9811669408512299,0.24945615845529298,0.679766587749584
0.9811669408512299,0.24945615845529298,-1.131454024841747
0.9811669408512299,0.24945615845529298,1.8507249518939493
0.9811669408512299,0.24945615845529298,-1.196696890621036
0.9811669408512299,0.24945615845529298,0.5302231460011273
0.9811669408512299,-0.640378813203295,-0.7632725106985012
0.9811669408512299,-0.640378813203295,0.679766587749584
0.9811669408512299,-0.640378813203295,-1.131454024841747
0.9811669408512299,-0.640378813203295,1.8507249518939493
0.9811669408512299,-0.640378813203295,-1.196696890621036
0.9811669408512299,-0.640378813203295,0.5302231460011273
0.9811669408512299,-0.7632725106985012,-1.196696890621036
0.9811669408512299,-0.7632725106985012,0.5302231460011273
0.9811669408512299,-0.7632725106985012,0.679766587749584
0.9811669408512299,-0.7632725106985012,-1.131454024841747
0.9811669408512299,-0.7632725106985012,1.8507249518939493
0.9811669408512299,0.679766587749584,-1.196696890621036
0.9811669408512299,0.679766587749584,0.5302231460011273
0.9811669408512299,0.679766587749584,-1.131454024841747
0.9811669408512299,0.679766587749584,1.8507249518939493
0.9811669408512299,-1.131454024841747,-1.196696890621036
0.9811669408512299,-1.131454024841747,0.5302231460011273
0.9811669408512299,-1.131454024841747,1.8507249518939493
0.9811669408512299,1.8507249518939493,-1.196696890621036
0.9811669408512299,1.8507249518939493,0.5302231460011273
0.9811669408512299,-1.196696890621036,0.5302231460011273
0.24945615845529298,-0.640378813203295,-0.7632725106985012
0.24945615845529298,-0.640378813203295,0.679766587749584
0.24945615845529298,-0.640378813203295,-1.131454024841747
0.24945615845529298,-0.640378813203295,1.8507249518939493
0.24945615845529298,-0.640378813203295,-1.196696890621036
0.24945615845529298,-0.640378813203295,0.5302231460011273
0.24945615845529298,-0.7632725106985012,-1.196696890621036
0.24945615845529298,-0.7632725106985012,0.5302231460011273
0.24945615845529298,-0.7632725106985012,0.679766587749584
0.24945615845529298,-0.7632725106985012,-1.131454024841747
0.24945615845529298,-0.7632725106985012,1.8507249518939493
0.24945615845529298,0.679766587749584,-1.196696890621036
0.24945615845529298,0.679766587749584,0.5302231460011273
0.24945615845529298,0.679766587749584,-1.131454024841747
0.24945615845529298,0.679766587749584,1.8507249518939493
0.24945615845529298,-1.131454024841747,-1.196696890621036
0.24945615845529298,-1.131454024841747,0.5302231460011273
0.24945615845529298,-1.131454024841747,1.8507249518939493
0.24945615845529298,1.8507249518939493,-1.196696890621036
0.24945615845529298,1.8507249518939493,0.5302231460011273
0.24945615845529298,-1.196696890621036,0.5302231460011273
-0.640378813203295,-0.7632725106985012,-1.196696890621036
-0.640378813203295,-0.7632725106985012,0.5302231460011273
-0.640378813203295,-0.7632725106985012,0.679766587749584
-0.640378813203295,-0.7632725106985012,-1.131454024841747
-0.640378813203295,-0.7632725106985012,1.8507249518939493
-0.640378813203295,0.679766587749584,-1.196696890621036
-0.640378813203295,0.679766587749584,0.5302231460011273
-0.640378813203295,0.679766587749584,-1.131454024841747
-0.640378813203295,0.679766587749584,1.8507249518939493
-0.640378813203295,-1.131454024841747,-1.196696890621036
-0.640378813203295,-1.131454024841747,0.5302231460011273
-0.640378813203295,-1.131454024841747,1.8507249518939493
-0.640378813203295,1.8507249518939493,-1.196696890621036
-0.640378813203295,1.8507249518939493,0.5302231460011273
-0.640378813203295,-1.196696890621036,0.5302231460011273
-0.7632725106985012,-1.196696890621036,0.5302231460011273
-0.7632725106985012,0.679766587749584,-1.196696890621036
-0.7632725106985012,0.679766587749584,0.5302231460011273
-0.7632725106985012,0.679766587749584,-1.131454024841747
-0.7632725106985012,0.679766587749584,1.8507249518939493
-0.7632725106985012,-1.131454024841747,-1.196696890621036
-0.7632725106985012,-1.131454024841747,0.5302231460011273
-0.7632725106985012,-1.131454024841747,1.8507249518939493
-0.7632725106985012,1.8507249518939493,-1.196696890621036
-0.7632725106985012,1.8507249518939493,0.5302231460011273
0.679766587749584,-1.196696890621036,0.5302231460011273
0.679766587749584,-1.131454024841747,-1.196696890621036
0.679766587749584,-1.131454024841747,0.5302231460011273
0.679766587749584,-1.131454024841747,1.8507249518939493
0.679766587749584,1.8507249518939493,-1.196696890621036
0.679766587749584,1.8507249518939493,0.5302231460011273
-1.131454024841747,-1.196696890621036,0.5302231460011273
-1.131454024841747,1.8507249518939493,-1.196696890621036
-1.131454024841747,1.8507249518939493,0.5302231460011273
1.8507249518939493,-1.196696890621036,0.5302231460011273
