0,1,2
1.4928072850721537,-1.877697041000785,1.2354267696809946
1.4928072850721537,-1.877697041000785,0.010615883670723011
1.4928072850721537,-1.877697041000785,0.04754319941347288
1.4928072850721537,-1.877697041000785,1.2555925369470056
1.4928072850721537,-1.877697041000785,0.5462406472312841
1.4928072850721537,-1.877697041000785,-0.71599073242755
1.4928072850721537,-1.877697041000785,0.7988065513158049
1.4928072850721537,-1.877697041000785,0.4208131237931858
1.4928072850721537,1.2354267696809946,0.010615883670723011
1.4928072850721537,1.2354267696809946,0.04754319941347288
1.4928072850721537,1.2354267696809946,1.2555925369470056
1.4928072850721537,1.2354267696809946,0.5462406472312841
1.4928072850721537,1.2354267696809946,-0.71599073242755
1.4928072850721537,1.2354267696809946,0.7988065513158049
1.4928072850721537,1.2354267696809946,0.4208131237931858
1.4928072850721537,0.010615883670723011,0.04754319941347288
1.4928072850721537,0.010615883670723011,1.2555925369470056
1.4928072850721537,0.010615883670723011,0.5462406472312841
1.4928072850721537,0.010615883670723011,-0.71599073242755
1.4928072850721537,0.010615883670723011,0.7988065513158049
1.4928072850721537,0.010615883670723011,0.4208131237931858
1.4928072850721537,0.04754319941347288,0.7988065513158049
1.4928072850721537,0.04754319941347288,0.4208131237931858
1.4928072850721537,0.04754319941347288,1.2555925369470056
1.4928072850721537,0.04754319941347288,0.5462406472312841
1.4928072850721537,0.04754319941347288,-0.71599073242755
1.4928072850721537,1.2555925369470056,0.7988065513158049
1.4928072850721537,1.2555925369470056,0.4208131237931858
1.4928072850721537,1.2555925369470056,0.5462406472312841
1.4928072850721537,1.2555925369470056,-0.71599073242755
1.4928072850721537,0.5462406472312841,0.7988065513158049
1.4928072850721537,0.5462406472312841,0.4208131237931858
1.4928072850721537,0.5462406472312841,-0.71599073242755
1.4928072850721537,-0.71599073242755,0.7988065513158049
1.4928072850721537,-0.71599073242755,0.4208131237931858
1.4928072850721537,0.7988065513158049,0.4208131237931858
-1.877697041000785,1.2354267696809946,0.010615883670723011
-1.877697041000785,1.2354267696809946,0.04754319941347288
-1.877697041000785,1.2354267696809946,1.2555925369470056
-1.877697041000785,1.2354267696809946,0.5462406472312841
-1.877697041000785,1.2354267696809946,-0.71599073242755
-1.877697041000785,1.2354267696809946,0.7988065513158049
-1.877697041000785,1.2354267696809946,0.4208131237931858
-1.877697041000785,0.010615883670723011,0.04754319941347288
-1.877697041000785,0.010615883670723011,1.2555925369470056
-1.877697041000785,0.010615883670723011,0.5462406472312841
-1.877697041000785,0.010615883670723011,-0.71599073242755
-1.877697041000785,0.010615883670723011,0.7988065513158049
-1.877697041000785,0.010615883670723011,0.4208131237931858
-1.877697041000785,0.04754319941347288,0.7988065513158049
-1.877697041000785,0.04754319941347288,0.4208131237931858
-1.877697041000785,0.04754319941347288,1.2555925369470056
-1.877697041000785,0.04754319941347288,0.5462406472312841
-1.877697041000785,0.04754319941347288,-0.71599073242755
-1.877697041000785,1.2555925369470056,0.7988065513158049
-1.877697041000785,1.2555925369470056,0.4208131237931858
-1.877697041000785,1.2555925369470056,0.5462406472312841
-1.877697041000785,1.2555925369470056,-0.71599073242755
-1.877697041000785,0.5462406472312841,0.7988065513158049
-1.877697041000785,0.5462406472312841,0.4208131237931858
-1.877697041000785,0.5462406472312841,-0.71599073242755
-1.877697041000785,-0.71599073242755,0.7988065513158049
-1.877697041000785,-0.71599073242755,0.4208131237931858
-1.877697041000785,0.7988065513158049,0.4208131237931858
1.2354267696809946,0.010615883670723011,0.04754319941347288
1.2354267696809946,0.010615883670723011,1.2555925369470056
1.2354267696809946,0.010615883670723011,0.5462406472312841
1.2354267696809946,0.010615883670723011,-0.71599073242755
1.2354267696809946,0.010615883670723011,0.7988065513158049
1.2354267696809946,0.010615883670723011,0.4208131237931858
1.2354267696809946,0.04754319941347288,0.7988065513158049
1.2354267696809946,0.04754319941347288,0.4208131237931858
1.2354267696809946,0.04754319941347288,1.2555925369470056
1.2354267696809946,0.04754319941347288,0.5462406472312841
1.2354267696809946,0.04754319941347288,-0.71599073242755
1.2354267696809946,1.2555925369470056,0.7988065513158049
1.2354267696809946,1.2555925369470056,0.4208131237931858
1.2354267696809946,1.2555925369470056,0.5462406472312841
1.2354267696809946,1.2555925369470056,-0.71599073242755
1.2354267696809946,0.5462406472312841,0.7988065513158049
1.2354267696809946,0.5462406472312841,0.4208131237931858
1.2354267696809946,0.5462406472312841,-0.71599073242755
1.2354267696809946,-0.71599073242755,0.7988065513158049
1.2354267696809946,-0.71599073242755,0.4208131237931858
1.2354267696809946,0.7988065513158049,0.4208131237931858
0.010615883670723011,0.04754319941347288,0.7988065513158049
0.010615883670723011,0.04754319941347288,0.4208131237931858
0.010615883670723011,0.04754319941347288,1.2555925369470056
0.010615883670723011,0.04754319941347288,0.5462406472312841
0.010615883670723011,0.04754319941347288,-0.71599073242755
0.010615883670723011,1.2555925369470056,0.7988065513158049
0.010615883670723011,1.2555925369470056,0.4208131237931858
0.010615883670723011,1.2555925369470056,0.5462406472312841
0.010615883670723011,1.2555925369470056,-0.71599073242755
0.010615883670723011,0.5462406472312841,0.7988065513158049
0.010615883670723011,0.5462406472312841,0.4208131237931858
0.010615883670723011,0.5462406472312841,-0.71599073242755
0.010615883670723011,-0.71599073242755,0.7988065513158049
0.010615883670723011,-0.71599073242755,0.4208131237931858
0.010615883670723011,0.7988065513158049,0.4208131237931858
0.04754319941347288,0.7988065513158049,0.4208131237931858
0.04754319941347288,1.2555925369470056,0.7988065513158049
0.04754319941347288,1.2555925369470056,0.4208131237931858
0.04754319941347288,1.2555925369470056,0.5462406472312841
0.04754319941347288,1.2555925369470056,-0.71599073242755
0.04754319941347288,0.5462406472312841,0.7988065513158049
0.04754319941347288,0.5462406472312841,0.4208131237931858
0.04754319941347288,0.5462406472312841,-0.71599073242755
0.04754319941347288,-0.71599073242755,0.7988065513158049
0.04754319941347288,-0.71599073242755,0.4208131237931858
1.2555925369470056,0.7988065513158049,0.4208131237931858
1.2555925369470056,0.5462406472312841,0.7988065513158049
1.2555925369470056,0.5462406472312841,0.4208131237931858
1.2555925369470056,0.5462406472312841,-0.71599073242755
1.2555925369470056,-0.71599073242755,0.7988065513158049
1.2555925369470056,-0.71599073242755,0.4208131237931858
0.5462406472312841,0.7988065513158049,0.4208131237931858
0.5462406472312841,-0.71599073242755,0.7988065513158049
0.5462406472312841,-0.71599073242755,0.4208131237931858
-0.71599073242755,0.7988065513158049,0.4208131237931858
