0,1,2
-0.6443597072606958,-0.6642439018441239,0.4492387584533023
-0.6443597072606958,-0.6642439018441239,0.5748060707375884
-0.6443597072606958,-0.6642439018441239,0.9567285165374482
-0.6443597072606958,-0.6642439018441239,-1.4666497715714286
-0.6443597072606958,-0.6642439018441239,0.8530390103998723
-0.6443597072606958,-0.6642439018441239,-1.3340444142532955
-0.6443597072606958,-0.6642439018441239,0.4983020112698419
-0.6443597072606958,-0.6642439018441239,-0.6467217351268177
-0.6443597072606958,0.4492387584533023,0.5748060707375884
-0.6443597072606958,0.4492387584533023,0.9567285165374482
-0.6443597072606958,0.4492387584533023,-1.4666497715714286
-0.6443597072606958,0.4492387584533023,0.8530390103998723
-0.6443597072606958,0.4492387584533023,-1.3340444142532955
-0.6443597072606958,0.4492387584533023,0.4983020112698419
-0.6443597072606958,0.4492387584533023,-0.6467217351268177
-0.6443597072606958,0.5748060707375884,0.9567285165374482
-0.6443597072606958,0.5748060707375884,-1.4666497715714286
-0.6443597072606958,0.5748060707375884,0.8530390103998723
-0.6443597072606958,0.5748060707375884,-1.3340444142532955
-0.6443597072606958,0.5748060707375884,0.4983020112698419
-0.6443597072606958,0.5748060707375884,-0.6467217351268177
-0.6443597072606958,0.9567285165374482,0.4983020112698419
-0.6443597072606958,0.9567285165374482,-0.6467217351268177
-0.6443597072606958,0.9567285165374482,-1.4666497715714286
-0.6443597072606958,0.9567285165374482,0.8530390103998723
-0.6443597072606958,0.9567285165374482,-1.3340444142532955
-0.6443597072606958,-1.4666497715714286,0.4983020112698419
-0.6443597072606958,-1.4666497715714286,-0.6467217351268177
-0.6443597072606958,-1.4666497715714286,0.8530390103998723
-0.6443597072606958,-1.4666497715714286,-1.3340444142532955
-0.6443597072606958,0.8530390103998723,0.4983020112698419
-0.6443597072606958,0.8530390103998723,-0.6467217351268177
-0.6443597072606958,0.8530390103998723,-1.3340444142532955
-0.6443597072606958,-1.3340444142532955,0.4983020112698419
-0.6443597072606958,-1.3340444142532955,-0.6467217351268177
-0.6443597072606958,0.4983020112698419,-0.6467217351268177
-0.6642439018441239,0.4492387584533023,0.5748060707375884
-0.6642439018441239,0.4492387584533023,0.9567285165374482
-0.6642439018441239,0.4492387584533023,-1.4666497715714286
-0.6642439018441239,0.4492387584533023,0.8530390103998723
-0.6642439018441239,0.4492387584533023,-1.3340444142532955
-0.6642439018441239,0.4492387584533023,0.4983020112698419
-0.6642439018441239,0.4492387584533023,-0.6467217351268177
-0.6642439018441239,0.5748060707375884,0.9567285165374482
-0.6642439018441239,0.5748060707375884,-1.4666497715714286
-0.6642439018441239,0.5748060707375884,0.8530390103998723
-0.6642439018441239,0.5748060707375884,-1.3340444142532955
-0.6642439018441239,0.5748060707375884,0.4983020112698419
-0.6642439018441239,0.5748060707375884,-0.6467217351268177
-0.6642439018441239,0.9567285165374482,0.4983020112698419
-0.6642439018441239,0.9567285165374482,-0.6467217351268177
-0.6642439018441239,0.9567285165374482,-1.4666497715714286
-0.6642439018441239,0.9567285165374482,0.8530390103998723
-0.6642439018441239,0.9567285165374482,-1.3340444142532955
-0.6642439018441239,-1.4666497715714286,0.4983020112698419
-0.6642439018441239,-1.4666497715714286,-0.6467217351268177
-0.6642439018441239,-1.4666497715714286,0.8530390103998723
-0.6642439018441239,-1.4666497715714286,-1.3340444142532955
-0.6642439018441239,0.8530390103998723,0.4983020112698419
-0.6642439018441239,0.8530390103998723,-0.6467217351268177
-0.6642439018441239,0.8530390103998723,-1.3340444142532955
-0.6642439018441239,-1.3340444142532955,0.4983020112698419
-0.6642439018441239,-1.3340444142532955,-0.6467217351268177
-0.6642439018441239,0.4983020112698419,-0.6467217351268177
0.4492387584533023,0.5748060707375884,0.9567285165374482
0.4492387584533023,0.5748060707375884,-1.4666497715714286
0.4492387584533023,0.5748060707375884,0.8530390103998723
0.4492387584533023,0.5748060707375884,-1.3340444142532955
0.4492387584533023,0.5748060707375884,0.4983020112698419
0.4492387584533023,0.5748060707375884,-0.6467217351268177
0.4492387584533023,0.9567285165374482,0.4983020112698419
0.4492387584533023,0.9567285165374482,-0.6467217351268177
0.4492387584533023,0.9567285165374482,-1.4666497715714286
0.4492387584533023,0.9567285165374482,0.8530390103998723
0.4492387584533023,0.9567285165374482,-1.3340444142532955
0.4492387584533023,-1.4666497715714286,0.4983020112698419
0.4492387584533023,-1.4666497715714286,-0.6467217351268177
0.4492387584533023,-1.4666497715714286,0.8530390103998723
0.4492387584533023,-1.4666497715714286,-1.3340444142532955
0.4492387584533023,0.8530390103998723,0.4983020112698419
0.4492387584533023,0.8530390103998723,-0.6467217351268177
0.4492387584533023,0.8530390103998723,-1.3340444142532955
0.4492387584533023,-1.3340444142532955,0.4983020112698419
0.4492387584533023,-1.3340444142532955,-0.6467217351268177
0.4492387584533023,0.4983020112698419,-0.6467217351268177
0.5748060707375884,0.9567285165374482,0.4983020112698419
0.5748060707375884,0.9567285165374482,-0.6467217351268177
0.5748060707375884,0.9567285165374482,-1.4666497715714286
0.5748060707375884,0.9567285165374482,0.8530390103998723
0.5748060707375884,0.9567285165374482,-1.3340444142532955
0.5748060707375884,-1.4666497715714286,0.4983020112698419
0.5748060707375884,-1.4666497715714286,-0.6467217351268177
0.5748060707375884,-1.4666497715714286,0.8530390103998723
0.5748060707375884,-1.4666497715714286,-1.3340444142532955
0.5748060707375884,0.8530390103998723,0.4983020112698419
0.5748060707375884,0.8530390103998723,-0.6467217351268177
0.5748060707375884,0.8530390103998723,-1.3340444142532955
0.5748060707375884,-1.3340444142532955,0.4983020112698419
0.5748060707375884,-1.3340444142532955,-0.6467217351268177
0.5748060707375884,0.4983020112698419,-0.6467217351268177
0.9567285165374482,0.4983020112698419,-0.6467217351268177
0.9567285165374482,-1.4666497715714286,0.4983020112698419
0.9567285165374482,-1.4666497715714286,-0.6467217351268177
0.9567285165374482,-1.4666497715714286,0.8530390103998723
0.9567285165374482,-1.4666497715714286,-1.3340444142532955
0.9567285165374482,0.8530390103998723,0.4983020112698419
0.9567285165374482,0.8530390103998723,-0.6467217351268177
0.9567285165374482,0.8530390103998723,-1.3340444142532955
0.9567285165374482,-1.3340444142532955,0.4983020112698419
0.9567285165374482,-1.3340444142532955,-0.6467217351268177
-1.4666497715714286,0.4983020112698419,-0.6467217351268177
-1.4666497715714286,0.8530390103998723,0.4983020112698419
-1.4666497715714286,0.8530390103998723,-0.6467217351268177
-1.4666497715714286,0.8530390103998723,-1.3340444142532955
-1.4666497715714286,-1.3340444142532955,0.4983020112698419
-1.4666497715714286,-1.3340444142532955,-0.6467217351268177
0.8530390103998723,0.4983020112698419,-0.6467217351268177
0.8530390103998723,-1.3340444142532955,0.4983020112698419
0.8530390103998723,-1.3340444142532955,-0.6467217351268177
-1.3340444142532955,0.4983020112698419,-0.6467217351268177
