0,1,2
2.0240190043217927,1.5786527091072258,-0.3552338118929824
2.0240190043217927,1.5786527091072258,1.2468224826630576
2.0240190043217927,1.5786527091072258,-2.6506007654105805
2.0240190043217927,1.5786527091072258,1.0932506715416748
2.0240190043217927,1.5786527091072258,0.8884578514192144
2.0240190043217927,1.5786527091072258,0.5196367941548351
2.0240190043217927,1.5786527091072258,2.0458456872668456
2.0240190043217927,1.5786527091072258,-0.8201750142192608
2.0240190043217927,-0.3552338118929824,1.2468224826630576
2.0240190043217927,-0.3552338118929824,-2.6506007654105805
2.0240190043217927,-0.3552338118929824,1.0932506715416748
2.0240190043217927,-0.3552338118929824,0.8884578514192144
2.0240190043217927,-0.3552338118929824,0.5196367941548351
2.0240190043217927,-0.3552338118929824,2.0458456872668456
2.0240190043217927,-0.3552338118929824,-0.8201750142192608
2.0240190043217927,1.2468224826630576,-2.6506007654105805
2.0240190043217927,1.2468224826630576,1.0932506715416748
2.0240190043217927,1.2468224826630576,0.8884578514192144
2.0240190043217927,1.2468224826630576,0.5196367941548351
2.0240190043217927,1.2468224826630576,2.0458456872668456
2.0240190043217927,1.2468224826630576,-0.8201750142192608
2.0240190043217927,-2.6506007654105805,2.0458456872668456
2.0240190043217927,-2.6506007654105805,-0.8201750142192608
2.0240190043217927,-2.6506007654105805,1.0932506715416748
2.0240190043217927,-2.6506007654105805,0.8884578514192144
2.0240190043217927,-2.6506007654105805,0.5196367941548351
2.0240190043217927,1.0932506715416748,2.0458456872668456
2.0240190043217927,1.0932506715416748,-0.8201750142192608
2.0240190043217927,1.0932506715416748,0.8884578514192144
2.0240190043217927,1.0932506715416748,0.5196367941548351
2.0240190043217927,0.8884578514192144,2.0458456872668456
2.0240190043217927,0.8884578514192144,-0.8201750142192608
2.0240190043217927,0.8884578514192144,0.5196367941548351
2.0240190043217927,0.5196367941548351,2.0458456872668456
2.0240190043217927,0.5196367941548351,-0.8201750142192608
2.0240190043217927,2.0458456872668456,-0.8201750142192608
1.5786527091072258,-0.3552338118929824,1.2468224826630576
1.5786527091072258,-0.3552338118929824,-2.6506007654105805
1.5786527091072258,-0.3552338118929824,1.0932506715416748
1.5786527091072258,-0.3552338118929824,0.8884578514192144
1.5786527091072258,-0.3552338118929824,0.5196367941548351
1.5786527091072258,-0.3552338118929824,2.0458456872668456
1.5786527091072258,-0.3552338118929824,-0.8201750142192608
1.5786527091072258,1.2468224826630576,-2.6506007654105805
1.5786527091072258,1.2468224826630576,1.0932506715416748
1.5786527091072258,1.2468224826630576,0.8884578514192144
1.5786527091072258,1.2468224826630576,0.5196367941548351
1.5786527091072258,1.2468224826630576,2.0458456872668456
1.5786527091072258,1.2468224826630576,-0.8201750142192608
1.5786527091072258,-2.6506007654105805,2.0458456872668456
1.5786527091072258,-2.6506007654105805,-0.8201750142192608
1.5786527091072258,-2.6506007654105805,1.0932506715416748
1.5786527091072258,-2.6506007654105805,0.8884578514192144
1.5786527091072258,-2.6506007654105805,0.5196367941548351
1.5786527091072258,1.0932506715416748,2.0458456872668456
1.5786527091072258,1.0932506715416748,-0.8201750142192608
1.5786527091072258,1.0932506715416748,0.8884578514192144
1.5786527091072258,1.0932506715416748,0.5196367941548351
1.5786527091072258,0.8884578514192144,2.0458456872668456
1.5786527091072258,0.8884578514192144,-0.8201750142192608
1.5786527091072258,0.8884578514192144,0.5196367941548351
1.5786527091072258,0.5196367941548351,2.0458456872668456
1.5786527091072258,0.5196367941548351,-0.8201750142192608
1.5786527091072258,2.0458456872668456,-0.8201750142192608
-0.3552338118929824,1.2468224826630576,-2.6506007654105805
-0.3552338118929824,1.2468224826630576,1.0932506715416748
-0.3552338118929824,1.2468224826630576,0.8884578514192144
-0.3552338118929824,1.2468224826630576,0.5196367941548351
-0.3552338118929824,1.2468224826630576,2.0458456872668456
-0.3552338118929824,1.2468224826630576,-0.8201750142192608
-0.3552338118929824,-2.6506007654105805,2.0458456872668456
-0.3552338118929824,-2.6506007654105805,-0.8201750142192608
-0.3552338118929824,-2.6506007654105805,1.0932506715416748
-0.3552338118929824,-2.6506007654105805,0.8884578514192144
-0.3552338118929824,-2.6506007654105805,0.5196367941548351
-0.3552338118929824,1.0932506715416748,2.0458456872668456
-0.3552338118929824,1.0932506715416748,-0.8201750142192608
-0.3552338118929824,1.0932506715416748,0.8884578514192144
-0.3552338118929824,1.0932506715416748,0.5196367941548351
-0.3552338118929824,0.8884578514192144,2.0458456872668456
-0.3552338118929824,0.8884578514192144,-0.8201750142192608
-0.3552338118929824,0.8884578514192144,0.5196367941548351
-0.3552338118929824,0.5196367941548351,2.0458456872668456
-0.3552338118929824,0.5196367941548351,-0.8201750142192608
-0.3552338118929824,2.0458456872668456,-0.8201750142192608
1.2468224826630576,-2.6506007654105805,2.0458456872668456
1.2468224826630576,-2.6506007654105805,-0.8201750142192608
1.2468224826630576,-2.6506007654105805,1.0932506715416748
1.2468224826630576,-2.6506007654105805,0.8884578514192144
1.2468224826630576,-2.6506007654105805,0.5196367941548351
1.2468224826630576,1.0932506715416748,2.0458456872668456
1.2468224826630576,1.0932506715416748,-0.8201750142192608
1.2468224826630576,1.0932506715416748,0.8884578514192144
1.2468224826630576,1.0932506715416748,0.5196367941548351
1.2468224826630576,0.8884578514192144,2.0458456872668456
1.2468224826630576,0.8884578514192144,-0.8201750142192608
1.2468224826630576,0.8884578514192144,0.5196367941548351
1.2468224826630576,0.5196367941548351,2.0458456872668456
1.2468224826630576,0.5196367941548351,-0.8201750142192608
1.2468224826630576,2.0458456872668456,-0.8201750142192608
-2.6506007654105805,2.0458456872668456,-0.8201750142192608
-2.6506007654105805,1.0932506715416748,2.0458456872668456
-2.6506007654105805,1.0932506715416748,-0.8201750142192608
-2.6506007654105805,1.0932506715416748,0.8884578514192144
-2.6506007654105805,1.0932506715416748,0.5196367941548351
-2.6506007654105805,0.8884578514192144,2.0458456872668456
-2.6506007654105805,0.8884578514192144,-0.8201750142192608
-2.6506007654105805,0.8884578514192144,0.5196367941548351
-2.6506007654105805,0.5196367941548351,2.0458456872668456
-2.6506007654105805,0.5196367941548351,-0.8201750142192608
1.0932506715416748,2.0458456872668456,-0.8201750142192608
1.0932506715416748,0.8884578514192144,2.0458456872668456
1.0932506715416748,0.8884578514192144,-0.8201750142192608
1.0932506715416748,0.8884578514192144,0.5196367941548351
1.0932506715416748,0.5196367941548351,2.0458456872668456
1.0932506715416748,0.5196367941548351,-0.8201750142192608
0.8884578514192144,2.0458456872668456,-0.8201750142192608
0.8884578514192144,0.5196367941548351,2.0458456872668456
0.8884578514192144,0.5196367941548351,-0.8201750142192608
0.5196367941548351,2.0458456872668456,-0.8201750142192608
