0,1,2
-0.5471682604928421,0.8957154342863907,1.4525277049476633
-0.5471682604928421,0.8957154342863907,-1.7932718461931083
-0.5471682604928421,0.8957154342863907,-1.2680031715660927
-0.5471682604928421,0.8957154342863907,0.7610110537544718
-0.5471682604928421,0.8957154342863907,1.2514679309906311
-0.5471682604928421,0.8957154342863907,0.05198327923456205
-0.5471682604928421,0.8957154342863907,1.7297636577058788
-0.5471682604928421,0.8957154342863907,-0.436230310012678
-0.5471682604928421,1.4525277049476633,-1.7932718461931083
-0.5471682604928421,1.4525277049476633,-1.2680031715660927
-0.5471682604928421,1.4525277049476633,0.7610110537544718
-0.5471682604928421,1.4525277049476633,1.2514679309906311
-0.5471682604928421,1.4525277049476633,0.05198327923456205
-0.5471682604928421,1.4525277049476633,1.7297636577058788
-0.5471682604928421,1.4525277049476633,-0.436230310012678
-0.5471682604928421,-1.7932718461931083,-1.2680031715660927
-0.5471682604928421,-1.7932718461931083,0.7610110537544718
-0.5471682604928421,-1.7932718461931083,1.2514679309906311
-0.5471682604928421,-1.7932718461931083,0.05198327923456205
-0.5471682604928421,-1.7932718461931083,1.7297636577058788
-0.5471682604928421,-1.7932718461931083,-0.436230310012678
-0.5471682604928421,-1.2680031715660927,1.7297636577058788
-0.5471682604928421,-1.2680031715660927,-0.436230310012678
-0.5471682604928421,-1.2680031715660927,0.7610110537544718
-0.5471682604928421,-1.2680031715660927,1.2514679309906311
-0.5471682604928421,-1.2680031715660927,0.05198327923456205
-0.5471682604928421,0.7610110537544718,1.7297636577058788
-0.5471682604928421,0.7610110537544718,-0.436230310012678
-0.5471682604928421,0.7610110537544718,1.2514679309906311
-0.5471682604928421,0.7610110537544718,0.05198327923456205
-0.5471682604928421,1.2514679309906311,1.7297636577058788
-0.5471682604928421,1.2514679309906311,-0.436230310012678
-0.5471682604928421,1.2514679309906311,0.05198327923456205
-0.5471682604928421,0.05198327923456205,1.7297636577058788
-0.5471682604928421,0.05198327923456205,-0.436230310012678
-0.5471682604928421,1.7297636577058788,-0.436230310012678
0.8957154342863907,1.4525277049476633,-1.7932718461931083
0.8957154342863907,1.4525277049476633,-1.2680031715660927
0.8957154342863907,1.4525277049476633,0.7610110537544718
0.8957154342863907,1.4525277049476633,1.2514679309906311
0.8957154342863907,1.4525277049476633,0.05198327923456205
0.8957154342863907,1.4525277049476633,1.7297636577058788
0.8957154342863907,1.4525277049476633,-0.436230310012678
0.8957154342863907,-1.7932718461931083,-1.2680031715660927
0.8957154342863907,-1.7932718461931083,0.7610110537544718
0.8957154342863907,-1.7932718461931083,1.2514679309906311
0.8957154342863907,-1.7932718461931083,0.05198327923456205
0.8957154342863907,-1.7932718461931083,1.7297636577058788
0.8957154342863907,-1.7932718461931083,-0.436230310012678
0.8957154342863907,-1.2680031715660927,1.7297636577058788
0.8957154342863907,-1.2680031715660927,-0.436230310012678
0.8957154342863907,-1.2680031715660927,0.7610110537544718
0.8957154342863907,-1.2680031715660927,1.2514679309906311
0.8957154342863907,-1.2680031715660927,0.05198327923456205
0.8957154342863907,0.7610110537544718,1.7297636577058788
0.8957154342863907,0.7610110537544718,-0.436230310012678
0.8957154342863907,0.7610110537544718,1.2514679309906311
0.8957154342863907,0.7610110537544718,0.05198327923456205
0.8957154342863907,1.2514679309906311,1.7297636577058788
0.8957154342863907,1.2514679309906311,-0.436230310012678
0.8957154342863907,1.2514679309906311,0.05198327923456205
0.8957154342863907,0.05198327923456205,1.7297636577058788
0.8957154342863907,0.05198327923456205,-0.436230310012678
0.8957154342863907,1.7297636577058788,-0.436230310012678
1.4525277049476633,-1.7932718461931083,-1.2680031715660927
1.4525277049476633,-1.7932718461931083,0.7610110537544718
1.4525277049476633,-1.7932718461931083,1.2514679309906311
1.4525277049476633,-1.7932718461931083,0.05198327923456205
1.4525277049476633,-1.7932718461931083,1.7297636577058788
1.4525277049476633,-1.7932718461931083,-0.436230310012678
1.4525277049476633,-1.2680031715660927,1.7297636577058788
1.4525277049476633,-1.2680031715660927,-0.436230310012678
1.4525277049476633,-1.2680031715660927,0.7610110537544718
1.4525277049476633,-1.2680031715660927,1.2514679309906311
1.4525277049476633,-1.2680031715660927,0.05198327923456205
1.4525277049476633,0.7610110537544718,1.7297636577058788
1.4525277049476633,0.7610110537544718,-0.436230310012678
1.4525277049476633,0.7610110537544718,1.2514679309906311
1.4525277049476633,0.7610110537544718,0.05198327923456205
1.4525277049476633,1.2514679309906311,1.7297636577058788
1.4525277049476633,1.2514679309906311,-0.436230310012678
1.4525277049476633,1.2514679309906311,0.05198327923456205
1.4525277049476633,0.05198327923456205,1.7297636577058788
1.4525277049476633,0.05198327923456205,-0.436230310012678
1.4525277049476633,1.7297636577058788,-0.436230310012678
-1.7932718461931083,-1.2680031715660927,1.7297636577058788
-1.7932718461931083,-1.2680031715660927,-0.436230310012678
-1.7932718461931083,-1.2680031715660927,0.7610110537544718
-1.7932718461931083,-1.2680031715660927,1.2514679309906311
-1.7932718461931083,-1.2680031715660927,0.05198327923456205
-1.7932718461931083,0.7610110537544718,1.7297636577058788
-1.7932718461931083,0.7610110537544718,-0.436230310012678
-1.7932718461931083,0.7610110537544718,1.2514679309906311
-1.7932718461931083,0.7610110537544718,0.05198327923456205
-1.7932718461931083,1.2514679309906311,1.7297636577058788
-1.7932718461931083,1.2514679309906311,-0.436230310012678
-1.7932718461931083,1.2514679309906311,0.05198327923456205
-1.7932718461931083,0.05198327923456205,1.7297636577058788
-1.7932718461931083,0.05198327923456205,-0.436230310012678
-1.7932718461931083,1.7297636577058788,-0.436230310012678
-1.2680031715660927,1.7297636577058788,-0.436230310012678
-1.2680031715660927,0.7610110537544718,1.7297636577058788
-1.2680031715660927,0.7610110537544718,-0.436230310012678
-1.2680031715660927,0.7610110537544718,1.2514679309906311
-1.2680031715660927,0.7610110537544718,0.05198327923456205
-1.2680031715660927,1.2514679309906311,1.7297636577058788
-1.2680031715660927,1.2514679309906311,-0.436230310012678
-1.2680031715660927,1.2514679309906311,0.05198327923456205
-1.2680031715660927,0.05198327923456205,1.7297636577058788
-1.2680031715660927,0.05198327923456205,-0.436230310012678
0.7610110537544718,1.7297636577058788,-0.436230310012678
0.7610110537544718,1.2514679309906311,1.7297636577058788
0.7610110537544718,1.2514679309906311,-0.436230310012678
0.7610110537544718,1.2514679309906311,0.05198327923456205
0.7610110537544718,0.05198327923456205,1.7297636577058788
0.7610110537544718,0.05198327923456205,-0.436230310012678
1.2514679309906311,1.7297636577058788,-0.436230310012678
1.2514679309906311,0.05198327923456205,1.7297636577058788
1.2514679309906311,0.05198327923456205,-0.436230310012678
0.05198327923456205,1.7297636577058788,-0.436230310012678
