0,1,2
-1.1084438296951649,-0.14139118296720235,-1.0863340213800257
-1.1084438296951649,-0.14139118296720235,-1.1688322319995372
-1.1084438296951649,-0.14139118296720235,-0.14560234437635322
-1.1084438296951649,-0.14139118296720235,0.8702630304410326
-1.1084438296951649,-0.14139118296720235,1.5984257318139414
-1.1084438296951649,-0.14139118296720235,0.03174105362136628
-1.1084438296951649,-0.14139118296720235,0.9488911324521615
-1.1084438296951649,-0.14139118296720235,-0.2962162824134311
-1.1084438296951649,-1.0863340213800257,-1.1688322319995372
-1.1084438296951649,-1.0863340213800257,-0.14560234437635322
-1.1084438296951649,-1.0863340213800257,0.8702630304410326
-1.1084438296951649,-1.0863340213800257,1.5984257318139414
-1.1084438296951649,-1.0863340213800257,0.03174105362136628
-1.1084438296951649,-1.0863340213800257,0.9488911324521615
-1.1084438296951649,-1.0863340213800257,-0.2962162824134311
-1.1084438296951649,-1.1688322319995372,-0.14560234437635322
-1.1084438296951649,-1.1688322319995372,0.8702630304410326
-1.1084438296951649,-1.1688322319995372,1.5984257318139414
-1.1084438296951649,-1.1688322319995372,0.03174105362136628
-1.1084438296951649,-1.1688322319995372,0.9488911324521615
-1.1084438296951649,-1.1688322319995372,-0.2962162824134311
-1.1084438296951649,-0.14560234437635322,0.9488911324521615
-1.1084438296951649,-0.14560234437635322,-0.2962162824134311
-1.1084438296951649,-0.14560234437635322,0.8702630304410326
-1.1084438296951649,-0.14560234437635322,1.5984257318139414
-1.1084438296951649,-0.14560234437635322,0.03174105362136628
-1.1084438296951649,0.8702630304410326,0.9488911324521615
-1.1084438296951649,0.8702630304410326,-0.2962162824134311
-1.1084438296951649,0.8702630304410326,1.5984257318139414
-1.1084438296951649,0.8702630304410326,0.03174105362136628
-1.1084438296951649,1.5984257318139414,0.9488911324521615
-1.1084438296951649,1.5984257318139414,-0.2962162824134311
-1.1084438296951649,1.5984257318139414,0.03174105362136628
-1.1084438296951649,0.03174105362136628,0.9488911324521615
-1.1084438296951649,0.03174105362136628,-0.2962162824134311
-1.1084438296951649,0.9488911324521615,-0.2962162824134311
-0.14139118296720235,-1.0863340213800257,-1.1688322319995372
-0.14139118296720235,-1.0863340213800257,-0.14560234437635322
-0.14139118296720235,-1.0863340213800257,0.8702630304410326
-0.14139118296720235,-1.0863340213800257,1.5984257318139414
-0.14139118296720235,-1.0863340213800257,0.03174105362136628
-0.14139118296720235,-1.0863340213800257,0.9488911324521615
-0.14139118296720235,-1.0863340213800257,-0.2962162824134311
-0.14139118296720235,-1.1688322319995372,-0.14560234437635322
-0.14139118296720235,-1.1688322319995372,0.8702630304410326
-0.14139118296720235,-1.1688322319995372,1.5984257318139414
-0.14139118296720235,-1.1688322319995372,0.03174105362136628
-0.14139118296720235,-1.1688322319995372,0.9488911324521615
-0.14139118296720235,-1.1688322319995372,-0.2962162824134311
-0.14139118296720235,-0.14560234437635322,0.9488911324521615
-0.14139118296720235,-0.14560234437635322,-0.2962162824134311
-0.14139118296720235,-0.14560234437635322,0.8702630304410326
-0.14139118296720235,-0.14560234437635322,1.5984257318139414
-0.14139118296720235,-0.14560234437635322,0.03174105362136628
-0.14139118296720235,0.8702630304410326,0.9488911324521615
-0.14139118296720235,0.8702630304410326,-0.2962162824134311
-0.14139118296720235,0.8702630304410326,1.5984257318139414
-0.14139118296720235,0.8702630304410326,0.03174105362136628
-0.14139118296720235,1.5984257318139414,0.9488911324521615
-0.14139118296720235,1.5984257318139414,-0.2962162824134311
-0.14139118296720235,1.5984257318139414,0.03174105362136628
-0.14139118296720235,0.03174105362136628,0.9488911324521615
-0.14139118296720235,0.03174105362136628,-0.2962162824134311
-0.14139118296720235,0.9488911324521615,-0.2962162824134311
-1.0863340213800257,-1.1688322319995372,-0.14560234437635322
-1.0863340213800257,-1.1688322319995372,0.8702630304410326
-1.0863340213800257,-1.1688322319995372,1.5984257318139414
-1.0863340213800257,-1.1688322319995372,0.03174105362136628
-1.0863340213800257,-1.1688322319995372,0.9488911324521615
-1.0863340213800257,-1.1688322319995372,-0.2962162824134311
-1.0863340213800257,-0.14560234437635322,0.9488911324521615
-1.0863340213800257,-0.14560234437635322,-0.2962162824134311
-1.0863340213800257,-0.14560234437635322,0.8702630304410326
-1.0863340213800257,-0.14560234437635322,1.5984257318139414
-1.0863340213800257,-0.14560234437635322,0.03174105362136628
-1.0863340213800257,0.8702630304410326,0.9488911324521615
-1.0863340213800257,0.8702630304410326,-0.2962162824134311
-1.0863340213800257,0.8702630304410326,1.5984257318139414
-1.0863340213800257,0.8702630304410326,0.03174105362136628
-1.0863340213800257,1.5984257318139414,0.9488911324521615
-1.0863340213800257,1.5984257318139414,-0.2962162824134311
-1.0863340213800257,1.5984257318139414,0.03174105362136628
-1.0863340213800257,0.03174105362136628,0.9488911324521615
-1.0863340213800257,0.03174105362136628,-0.2962162824134311
-1.0863340213800257,0.9488911324521615,-0.2962162824134311
-1.1688322319995372,-0.14560234437635322,0.9488911324521615
-1.1688322319995372,-0.14560234437635322,-0.2962162824134311
-1.1688322319995372,-0.14560234437635322,0.8702630304410326
-1.1688322319995372,-0.14560234437635322,1.5984257318139414
-1.1688322319995372,-0.14560234437635322,0.03174105362136628
-1.1688322319995372,0.8702630304410326,0.9488911324521615
-1.1688322319995372,0.8702630304410326,-0.2962162824134311
-1.1688322319995372,0.8702630304410326,1.5984257318139414
-1.1688322319995372,0.8702630304410326,0.03174105362136628
-1.1688322319995372,1.5984257318139414,0.9488911324521615
-1.1688322319995372,1.5984257318139414,-0.2962162824134311
-1.1688322319995372,1.5984257318139414,0.03174105362136628
-1.1688322319995372,0.03174105362136628,0.9488911324521615
-1.1688322319995372,0.03174105362136628,-0.2962162824134311
-1.1688322319995372,0.9488911324521615,-0.2962162824134311
-0.14560234437635322,0.9488911324521615,-0.2962162824134311
-0.14560234437635322,0.8702630304410326,0.9488911324521615
-0.14560234437635322,0.8702630304410326,-0.2962162824134311
-0.14560234437635322,0.8702630304410326,1.5984257318139414
-0.14560234437635322,0.8702630304410326,0.03174105362136628
-0.14560234437635322,1.5984257318139414,0.9488911324521615
-0.14560234437635322,1.5984257318139414,-0.2962162824134311
-0.14560234437635322,1.5984257318139414,0.03174105362136628
-0.14560234437635322,0.03174105362136628,0.9488911324521615
-0.14560234437635322,0.03174105362136628,-0.2962162824134311
0.8702630304410326,0.9488911324521615,-0.2962162824134311
0.8702630304410326,1.5984257318139414,0.9488911324521615
0.8702630304410326,1.5984257318139414,-0.2962162824134311
0.8702630304410326,1.5984257318139414,0.03174105362136628
0.8702630304410326,0.03174105362136628,0.9488911324521615
0.8702630304410326,0.03174105362136628,-0.2962162824134311
1.5984257318139414,0.9488911324521615,-0.2962162824134311
1.5984257318139414,0.03174105362136628,0.9488911324521615
1.5984257318139414,0.03174105362136628,-0.2962162824134311
0.03174105362136628,0.9488911324521615,-0.2962162824134311
