0,1,2
0.06668655542639453,0.3534886432272592,-0.7308301923192855
0.06668655542639453,0.3534886432272592,-0.4359571969805796
0.06668655542639453,0.3534886432272592,-1.3622703279967578
0.06668655542639453,0.3534886432272592,0.7523986878440678
0.06668655542639453,0.3534886432272592,0.628231848273962
0.06668655542639453,0.3534886432272592,0.6531352468851924
0.06668655542639453,0.3534886432272592,0.4084752061262886
0.06668655542639453,0.3534886432272592,-0.32718833613166254
0.06668655542639453,-0.7308301923192855,-0.4359571969805796
0.06668655542639453,-0.7308301923192855,-1.3622703279967578
0.06668655542639453,-0.7308301923192855,0.7523986878440678
0.06668655542639453,-0.7308301923192855,0.628231848273962
0.06668655542639453,-0.7308301923192855,0.6531352468851924
0.06668655542639453,-0.7308301923192855,0.4084752061262886
0.06668655542639453,-0.7308301923192855,-0.32718833613166254
0.06668655542639453,-0.4359571969805796,-1.3622703279967578
0.06668655542639453,-0.4359571969805796,0.7523986878440678
0.06668655542639453,-0.4359571969805796,0.628231848273962
0.06668655542639453,-0.4359571969805796,0.6531352468851924
0.06668655542639453,-0.4359571969805796,0.4084752061262886
0.06668655542639453,-0.4359571969805796,-0.32718833613166254
0.06668655542639453,-1.3622703279967578,0.4084752061262886
0.06668655542639453,-1.3622703279967578,-0.32718833613166254
0.06668655542639453,-1.3622703279967578,0.7523986878440678
0.06668655542639453,-1.3622703279967578,0.628231848273962
0.06668655542639453,-1.3622703279967578,0.6531352468851924
0.06668655542639453,0.7523986878440678,0.4084752061262886
0.06668655542639453,0.7523986878440678,-0.32718833613166254
0.06668655542639453,0.7523986878440678,0.628231848273962
0.06668655542639453,0.7523986878440678,0.6531352468851924
0.06668655542639453,0.628231848273962,0.4084752061262886
0.06668655542639453,0.628231848273962,-0.32718833613166254
0.06668655542639453,0.628231848273962,0.6531352468851924
0.06668655542639453,0.6531352468851924,0.4084752061262886
0.06668655542639453,0.6531352468851924,-0.32718833613166254
0.06668655542639453,0.4084752061262886,-0.32718833613166254
0.3534886432272592,-0.7308301923192855,-0.4359571969805796
0.3534886432272592,-0.7308301923192855,-1.3622703279967578
0.3534886432272592,-0.7308301923192855,0.7523986878440678
0.3534886432272592,-0.7308301923192855,0.628231848273962
0.3534886432272592,-0.7308301923192855,0.6531352468851924
0.3534886432272592,-0.7308301923192855,0.4084752061262886
0.3534886432272592,-0.7308301923192855,-0.32718833613166254
0.3534886432272592,-0.4359571969805796,-1.3622703279967578
0.3534886432272592,-0.4359571969805796,0.7523986878440678
0.3534886432272592,-0.4359571969805796,0.628231848273962
0.3534886432272592,-0.4359571969805796,0.6531352468851924
0.3534886432272592,-0.4359571969805796,0.4084752061262886
0.3534886432272592,-0.4359571969805796,-0.32718833613166254
0.3534886432272592,-1.3622703279967578,0.4084752061262886
0.3534886432272592,-1.3622703279967578,-0.32718833613166254
0.3534886432272592,-1.3622703279967578,0.7523986878440678
0.3534886432272592,-1.3622703279967578,0.628231848273962
0.3534886432272592,-1.3622703279967578,0.6531352468851924
0.3534886432272592,0.7523986878440678,0.4084752061262886
0.3534886432272592,0.7523986878440678,-0.32718833613166254
0.3534886432272592,0.7523986878440678,0.628231848273962
0.3534886432272592,0.7523986878440678,0.6531352468851924
0.3534886432272592,0.628231848273962,0.4084752061262886
0.3534886432272592,0.628231848273962,-0.32718833613166254
0.3534886432272592,0.628231848273962,0.6531352468851924
0.3534886432272592,0.6531352468851924,0.4084752061262886
0.3534886432272592,0.6531352468851924,-0.32718833613166254
0.3534886432272592,0.4084752061262886,-0.32718833613166254
-0.7308301923192855,-0.4359571969805796,-1.3622703279967578
-0.7308301923192855,-0.4359571969805796,0.7523986878440678
-0.7308301923192855,-0.4359571969805796,0.628231848273962
-0.7308301923192855,-0.4359571969805796,0.6531352468851924
-0.7308301923192855,-0.4359571969805796,0.4084752061262886
-0.7308301923192855,-0.4359571969805796,-0.32718833613166254
-0.7308301923192855,-1.3622703279967578,0.4084752061262886
-0.7308301923192855,-1.3622703279967578,-0.32718833613166254
-0.7308301923192855,-1.3622703279967578,0.7523986878440678
-0.7308301923192855,-1.3622703279967578,0.628231848273962
-0.7308301923192855,-1.3622703279967578,0.6531352468851924
-0.7308301923192855,0.7523986878440678,0.4084752061262886
-0.7308301923192855,0.7523986878440678,-0.32718833613166254
-0.7308301923192855,0.7523986878440678,0.628231848273962
-0.7308301923192855,0.7523986878440678,0.6531352468851924
-0.7308301923192855,0.628231848273962,0.4084752061262886
-0.7308301923192855,0.628231848273962,-0.32718833613166254
-0.7308301923192855,0.628231848273962,0.6531352468851924
-0.7308301923192855,0.6531352468851924,0.4084752061262886
-0.7308301923192855,0.6531352468851924,-0.32718833613166254
-0.7308301923192855,0.4084752061262886,-0.32718833613166254
-0.4359571969805796,-1.3622703279967578,0.4084752061262886
-0.4359571969805796,-1.3622703279967578,-0.32718833613166254
-0.4359571969805796,-1.3622703279967578,0.7523986878440678
-0.4359571969805796,-1.3622703279967578,0.628231848273962
-0.4359571969805796,-1.3622703279967578,0.6531352468851924
-0.4359571969805796,0.7523986878440678,0.4084752061262886
-0.4359571969805796,0.7523986878440678,-0.32718833613166254
-0.4359571969805796,0.7523986878440678,0.628231848273962
-0.4359571969805796,0.7523986878440678,0.6531352468851924
-0.4359571969805796,0.628231848273962,0.4084752061262886
-0.4359571969805796,0.628231848273962,-0.32718833613166254
-0.4359571969805796,0.628231848273962,0.6531352468851924
-0.4359571969805796,0.6531352468851924,0.4084752061262886
-0.4359571969805796,0.6531352468851924,-0.32718833613166254
-0.4359571969805796,0.4084752061262886,-0.32718833613166254
-1.3622703279967578,0.4084752061262886,-0.32718833613166254
-1.3622703279967578,0.7523986878440678,0.4084752061262886
-1.3622703279967578,0.7523986878440678,-0.32718833613166254
-1.3622703279967578,0.7523986878440678,0.628231848273962
-1.3622703279967578,0.7523986878440678,0.6531352468851924
-1.3622703279967578,0.628231848273962,0.4084752061262886
-1.3622703279967578,0.628231848273962,-0.32718833613166254
-1.3622703279967578,0.628231848273962,0.6531352468851924
-1.3622703279967578,0.6531352468851924,0.4084752061262886
-1.3622703279967578,0.6531352468851924,-0.32718833613166254
0.7523986878440678,0.4084752061262886,-0.32718833613166254
0.7523986878440678,0.628231848273962,0.4084752061262886
0.7523986878440678,0.628231848273962,-0.32718833613166254
0.7523986878440678,0.628231848273962,0.6531352468851924
0.7523986878440678,0.6531352468851924,0.4084752061262886
0.7523986878440678,0.6531352468851924,-0.32718833613166254
0.628231848273962,0.4084752061262886,-0.32718833613166254
0.628231848273962,0.6531352468851924,0.4084752061262886
0.628231848273962,0.6531352468851924,-0.32718833613166254
0.6531352468851924,0.4084752061262886,-0.32718833613166254
