0,1,2
-1.3653510024739268,-0.1849080524493467,1.7427079959525578
-1.3653510024739268,-0.1849080524493467,-1.1318116072512165
-1.3653510024739268,-0.1849080524493467,-0.1306715402174296
-1.3653510024739268,-0.1849080524493467,0.17450938543513242
-1.3653510024739268,-0.1849080524493467,0.18391053570920884
-1.3653510024739268,-0.1849080524493467,-0.17507201911848055
-1.3653510024739268,-0.1849080524493467,-0.2941071001141136
-1.3653510024739268,-0.1849080524493467,-1.8610854188152457
-1.3653510024739268,1.7427079959525578,-1.1318116072512165
-1.3653510024739268,1.7427079959525578,-0.1306715402174296
-1.3653510024739268,1.7427079959525578,0.17450938543513242
-1.3653510024739268,1.7427079959525578,0.18391053570920884
-1.3653510024739268,1.7427079959525578,-0.17507201911848055
-1.3653510024739268,1.7427079959525578,-0.2941071001141136
-1.3653510024739268,1.7427079959525578,-1.8610854188152457
-1.3653510024739268,-1.1318116072512165,-0.1306715402174296
-1.3653510024739268,-1.1318116072512165,0.17450938543513242
-1.3653510024739268,-1.1318116072512165,0.18391053570920884
-1.3653510024739268,-1.1318116072512165,-0.17507201911848055
-1.3653510024739268,-1.1318116072512165,-0.2941071001141136
-1.3653510024739268,-1.1318116072512165,-1.8610854188152457
-1.3653510024739268,-0.1306715402174296,-0.2941071001141136
-1.3653510024739268,-0.1306715402174296,-1.8610854188152457
-1.3653510024739268,-0.1306715402174296,0.17450938543513242
-1.3653510024739268,-0.1306715402174296,0.18391053570920884
-1.3653510024739268,-0.1306715402174296,-0.17507201911848055
-1.3653510024739268,0.17450938543513242,-0.2941071001141136
-1.3653510024739268,0.17450938543513242,-1.8610854188152457
-1.3653510024739268,0.17450938543513242,0.18391053570920884
-1.3653510024739268,0.17450938543513242,-0.17507201911848055
-1.3653510024739268,0.18391053570920884,-0.2941071001141136
-1.3653510024739268,0.18391053570920884,-1.8610854188152457
-1.3653510024739268,0.18391053570920884,-0.17507201911848055
-1.3653510024739268,-0.17507201911848055,-0.2941071001141136
-1.3653510024739268,-0.17507201911848055,-1.8610854188152457
-1.3653510024739268,-0.2941071001141136,-1.8610854188152457
-0.1849080524493467,1.7427079959525578,-1.1318116072512165
-0.1849080524493467,1.7427079959525578,-0.1306715402174296
-0.1849080524493467,1.7427079959525578,0.17450938543513242
-0.1849080524493467,1.7427079959525578,0.18391053570920884
-0.1849080524493467,1.7427079959525578,-0.17507201911848055
-0.1849080524493467,1.7427079959525578,-0.2941071001141136
-0.1849080524493467,1.7427079959525578,-1.8610854188152457
-0.1849080524493467,-1.1318116072512165,-0.1306715402174296
-0.1849080524493467,-1.1318116072512165,0.17450938543513242
-0.1849080524493467,-1.1318116072512165,0.18391053570920884
-0.1849080524493467,-1.1318116072512165,-0.17507201911848055
-0.1849080524493467,-1.1318116072512165,-0.2941071001141136
-0.1849080524493467,-1.1318116072512165,-1.8610854188152457
-0.1849080524493467,-0.1306715402174296,-0.2941071001141136
-0.1849080524493467,-0.1306715402174296,-1.8610854188152457
-0.1849080524493467,-0.1306715402174296,0.17450938543513242
-0.1849080524493467,-0.1306715402174296,0.18391053570920884
-0.1849080524493467,-0.1306715402174296,-0.17507201911848055
-0.1849080524493467,0.17450938543513242,-0.2941071001141136
-0.1849080524493467,0.17450938543513242,-1.8610854188152457
-0.1849080524493467,0.17450938543513242,0.18391053570920884
-0.1849080524493467,0.17450938543513242,-0.17507201911848055
-0.1849080524493467,0.18391053570920884,-0.2941071001141136
-0.1849080524493467,0.18391053570920884,-1.8610854188152457
-0.1849080524493467,0.18391053570920884,-0.17507201911848055
-0.1849080524493467,-0.17507201911848055,-0.2941071001141136
-0.1849080524493467,-0.17507201911848055,-1.8610854188152457
-0.1849080524493467,-0.2941071001141136,-1.8610854188152457
1.7427079959525578,-1.1318116072512165,-0.1306715402174296
1.7427079959525578,-1.1318116072512165,0.17450938543513242
1.7427079959525578,-1.1318116072512165,0.18391053570920884
1.7427079959525578,-1.1318116072512165,-0.17507201911848055
1.7427079959525578,-1.1318116072512165,-0.2941071001141136
1.7427079959525578,-1.1318116072512165,-1.8610854188152457
1.7427079959525578,-0.1306715402174296,-0.2941071001141136
1.7427079959525578,-0.1306715402174296,-1.8610854188152457
1.7427079959525578,-0.1306715402174296,0.17450938543513242
1.7427079959525578,-0.1306715402174296,0.18391053570920884
1.7427079959525578,-0.1306715402174296,-0.17507201911848055
1.7427079959525578,0.17450938543513242,-0.2941071001141136
1.7427079959525578,0.17450938543513242,-1.8610854188152457
1.7427079959525578,0.17450938543513242,0.18391053570920884
1.7427079959525578,0.17450938543513242,-0.17507201911848055
1.7427079959525578,0.18391053570920884,-0.2941071001141136
1.7427079959525578,0.18391053570920884,-1.8610854188152457
1.7427079959525578,0.18391053570920884,-0.17507201911848055
1.7427079959525578,-0.17507201911848055,-0.2941071001141136
1.7427079959525578,-0.17507201911848055,-1.8610854188152457
1.7427079959525578,-0.2941071001141136,-1.8610854188152457
-1.1318116072512165,-0.1306715402174296,-0.2941071001141136
-1.1318116072512165,-0.1306715402174296,-1.8610854188152457
-1.1318116072512165,-0.1306715402174296,0.17450938543513242
-1.1318116072512165,-0.1306715402174296,0.18391053570920884
-1.1318116072512165,-0.1306715402174296,-0.17507201911848055
-1.1318116072512165,0.17450938543513242,-0.2941071001141136
-1.1318116072512165,0.17450938543513242,-1.8610854188152457
-1.1318116072512165,0.17450938543513242,0.18391053570920884
-1.1318116072512165,0.17450938543513242,-0.17507201911848055
-1.1318116072512165,0.18391053570920884,-0.2941071001141136
-1.1318116072512165,0.18391053570920884,-1.8610854188152457
-1.1318116072512165,0.18391053570920884,-0.17507201911848055
-1.1318116072512165,-0.17507201911848055,-0.2941071001141136
-1.1318116072512165,-0.17507201911848055,-1.8610854188152457
-1.1318116072512165,-0.2941071001141136,-1.8610854188152457
-0.1306715402174296,-0.2941071001141136,-1.8610854188152457
-0.1306715402174296,0.17450938543513242,-0.2941071001141136
-0.1306715402174296,0.17450938543513242,-1.8610854188152457
-0.1306715402174296,0.17450938543513242,0.18391053570920884
-0.1306715402174296,0.17450938543513242,-0.17507201911848055
-0.1306715402174296,0.18391053570920884,-0.2941071001141136
-0.1306715402174296,0.18391053570920884,-1.8610854188152457
-0.1306715402174296,0.18391053570920884,-0.17507201911848055
-0.1306715402174296,-0.17507201911848055,-0.2941071001141136
-0.1306715402174296,-0.17507201911848055,-1.8610854188152457
0.17450938543513242,-0.2941071001141136,-1.8610854188152457
0.17450938543513242,0.18391053570920884,-0.2941071001141136
0.17450938543513242,0.18391053570920884,-1.8610854188152457
0.17450938543513242,0.18391053570920884,-0.17507201911848055
0.17450938543513242,-0.17507201911848055,-0.2941071001141136
0.17450938543513242,-0.17507201911848055,-1.8610854188152457
0.18391053570920884,-0.2941071001141136,-1.8610854188152457
0.18391053570920884,-0.17507201911848055,-0.2941071001141136
0.18391053570920884,-0.17507201911848055,-1.8610854188152457
-0.17507201911848055,-0.2941071001141136,-1.8610854188152457
