0,1,2
-1.8838895211364528,1.0375751787829153,-1.429797100913342
-1.8838895211364528,1.0375751787829153,-2.1296109150054505
-1.8838895211364528,1.0375751787829153,-0.6662088763736195
-1.8838895211364528,1.0375751787829153,0.21692132771874975
-1.8838895211364528,1.0375751787829153,0.05960105709281814
-1.8838895211364528,1.0375751787829153,1.050569799313414
-1.8838895211364528,1.0375751787829153,-0.3278202793386819
-1.8838895211364528,1.0375751787829153,0.2746779252892917
-1.8838895211364528,-1.429797100913342,-2.1296109150054505
-1.8838895211364528,-1.429797100913342,-0.6662088763736195
-1.8838895211364528,-1.429797100913342,0.21692132771874975
-1.8838895211364528,-1.429797100913342,0.05960105709281814
-1.8838895211364528,-1.429797100913342,1.050569799313414
-1.8838895211364528,-1.429797100913342,-0.3278202793386819
-1.8838895211364528,-1.429797100913342,0.2746779252892917
-1.8838895211364528,-2.1296109150054505,-0.6662088763736195
-1.8838895211364528,-2.1296109150054505,0.21692132771874975
-1.8838895211364528,-2.1296109150054505,0.05960105709281814
-1.8838895211364528,-2.1296109150054505,1.050569799313414
-1.8838895211364528,-2.1296109150054505,-0.3278202793386819
-1.8838895211364528,-2.1296109150054505,0.2746779252892917
-1.8838895211364528,-0.6662088763736195,-0.3278202793386819
-1.8838895211364528,-0.6662088763736195,0.2746779252892917
-1.8838895211364528,-0.6662088763736195,0.21692132771874975
-1.8838895211364528,-0.6662088763736195,0.05960105709281814
-1.8838895211364528,-0.6662088763736195,1.050569799313414
-1.8838895211364528,0.21692132771874975,-0.3278202793386819
-1.8838895211364528,0.21692132771874975,0.2746779252892917
-1.8838895211364528,0.21692132771874975,0.05960105709281814
-1.8838895211364528,0.21692132771874975,1.050569799313414
-1.8838895211364528,0.05960105709281814,-0.3278202793386819
-1.8838895211364528,0.05960105709281814,0.2746779252892917
-1.8838895211364528,0.05960105709281814,1.050569799313414
-1.8838895211364528,1.050569799313414,-0.3278202793386819
-1.8838895211364528,1.050569799313414,0.2746779252892917
-1.8838895211364528,-0.3278202793386819,0.2746779252892917
1.0375751787829153,-1.429797100913342,-2.1296109150054505
1.0375751787829153,-1.429797100913342,-0.6662088763736195
1.0375751787829153,-1.429797100913342,0.21692132771874975
1.0375751787829153,-1.429797100913342,0.05960105709281814
1.0375751787829153,-1.429797100913342,1.050569799313414
1.0375751787829153,-1.429797100913342,-0.3278202793386819
1.0375751787829153,-1.429797100913342,0.2746779252892917
1.0375751787829153,-2.1296109150054505,-0.6662088763736195
1.0375751787829153,-2.1296109150054505,0.21692132771874975
1.0375751787829153,-2.1296109150054505,0.05960105709281814
1.0375751787829153,-2.1296109150054505,1.050569799313414
1.0375751787829153,-2.1296109150054505,-0.3278202793386819
1.0375751787829153,-2.1296109150054505,0.2746779252892917
1.0375751787829153,-0.6662088763736195,-0.3278202793386819
1.0375751787829153,-0.6662088763736195,0.2746779252892917
1.0375751787829153,-0.6662088763736195,0.21692132771874975
1.0375751787829153,-0.6662088763736195,0.05960105709281814
1.0375751787829153,-0.6662088763736195,1.050569799313414
1.0375751787829153,0.21692132771874975,-0.3278202793386819
1.0375751787829153,0.21692132771874975,0.2746779252892917
1.0375751787829153,0.21692132771874975,0.05960105709281814
1.0375751787829153,0.21692132771874975,1.050569799313414
1.0375751787829153,0.05960105709281814,-0.3278202793386819
1.0375751787829153,0.05960105709281814,0.2746779252892917
1.0375751787829153,0.05960105709281814,1.050569799313414
1.0375751787829153,1.050569799313414,-0.3278202793386819
1.0375751787829153,1.050569799313414,0.2746779252892917
1.0375751787829153,-0.3278202793386819,0.2746779252892917
-1.429797100913342,-2.1296109150054505,-0.6662088763736195
-1.429797100913342,-2.1296109150054505,0.21692132771874975
-1.429797100913342,-2.1296109150054505,0.05960105709281814
-1.429797100913342,-2.1296109150054505,1.050569799313414
-1.429797100913342,-2.1296109150054505,-0.3278202793386819
-1.429797100913342,-2.1296109150054505,0.2746779252892917
-1.429797100913342,-0.6662088763736195,-0.3278202793386819
-1.429797100913342,-0.6662088763736195,0.2746779252892917
-1.429797100913342,-0.6662088763736195,0.21692132771874975
-1.429797100913342,-0.6662088763736195,0.05960105709281814
-1.429797100913342,-0.6662088763736195,1.050569799313414
-1.429797100913342,0.21692132771874975,-0.3278202793386819
-1.429797100913342,0.21692132771874975,0.2746779252892917
-1.429797100913342,0.21692132771874975,0.05960105709281814
-1.429797100913342,0.21692132771874975,1.050569799313414
-1.429797100913342,0.05960105709281814,-0.3278202793386819
-1.429797100913342,0.05960105709281814,0.2746779252892917
-1.429797100913342,0.05960105709281814,1.050569799313414
-1.429797100913342,1.050569799313414,-0.3278202793386819
-1.429797100913342,1.050569799313414,0.2746779252892917
-1.429797100913342,-0.3278202793386819,0.2746779252892917
-2.1296109150054505,-0.6662088763736195,-0.3278202793386819
-2.1296109150054505,-0.6662088763736195,0.2746779252892917
-2.1296109150054505,-0.6662088763736195,0.21692132771874975
-2.1296109150054505,-0.6662088763736195,0.05960105709281814
-2.1296109150054505,-0.6662088763736195,1.050569799313414
-2.1296109150054505,0.21692132771874975,-0.3278202793386819
-2.1296109150054505,0.21692132771874975,0.2746779252892917
-2.1296109150054505,0.21692132771874975,0.05960105709281814
-2.1296109150054505,0.21692132771874975,1.050569799313414
-2.1296109150054505,0.05960105709281814,-0.3278202793386819
-2.1296109150054505,0.05960105709281814,0.2746779252892917
-2.1296109150054505,0.05960105709281814,1.050569799313414
-2.1296109150054505,1.050569799313414,-0.3278202793386819
-2.1296109150054505,1.050569799313414,0.2746779252892917
-2.1296109150054505,-0.3278202793386819,0.2746779252892917
-0.6662088763736195,-0.3278202793386819,0.2746779252892917
-0.6662088763736195,0.21692132771874975,-0.3278202793386819
-0.6662088763736195,0.21692132771874975,0.2746779252892917
-0.6662088763736195,0.21692132771874975,0.05960105709281814
-0.6662088763736195,0.21692132771874975,1.050569799313414
-0.6662088763736195,0.05960105709281814,-0.3278202793386819
-0.6662088763736195,0.05960105709281814,0.2746779252892917
-0.6662088763736195,0.05960105709281814,1.050569799313414
-0.6662088763736195,1.050569799313414,-0.3278202793386819
-0.6662088763736195,1.050569799313414,0.2746779252892917
0.21692132771874975,-0.3278202793386819,0.2746779252892917
0.21692132771874975,0.05960105709281814,-0.3278202793386819
0.21692132771874975,0.05960105709281814,0.2746779252892917
0.21692132771874975,0.05960105709281814,1.050569799313414
0.21692132771874975,1.050569799313414,-0.3278202793386819
0.21692132771874975,1.050569799313414,0.2746779252892917
0.05960105709281814,-0.3278202793386819,0.2746779252892917
0.05960105709281814,1.050569799313414,-0.3278202793386819
0.05960105709281814,1.050569799313414,0.2746779252892917
1.050569799313414,-0.3278202793386819,0.2746779252892917
