0,1,2
0.42089582490898325,0.010537933259695017,0.6102217223788303
0.42089582490898325,0.010537933259695017,-0.9778076358509719
0.42089582490898325,0.010537933259695017,0.5584617420726736
0.42089582490898325,0.010537933259695017,0.4667305950109449
0.42089582490898325,0.010537933259695017,0.7000629951010329
0.42089582490898325,0.010537933259695017,-2.432013158962783
0.42089582490898325,0.010537933259695017,-0.7501539417888679
0.42089582490898325,0.010537933259695017,0.5900749091029511
0.42089582490898325,0.6102217223788303,-0.9778076358509719
0.42089582490898325,0.6102217223788303,0.5584617420726736
0.42089582490898325,0.6102217223788303,0.4667305950109449
0.42089582490898325,0.6102217223788303,0.7000629951010329
0.42089582490898325,0.6102217223788303,-2.432013158962783
0.42089582490898325,0.6102217223788303,-0.7501539417888679
0.42089582490898325,0.6102217223788303,0.5900749091029511
0.42089582490898325,-0.9778076358509719,0.5584617420726736
0.42089582490898325,-0.9778076358509719,0.4667305950109449
0.42089582490898325,-0.9778076358509719,0.7000629951010329
0.42089582490898325,-0.9778076358509719,-2.432013158962783
0.42089582490898325,-0.9778076358509719,-0.7501539417888679
0.42089582490898325,-0.9778076358509719,0.5900749091029511
0.42089582490898325,0.5584617420726736,-0.7501539417888679
0.42089582490898325,0.5584617420726736,0.5900749091029511
0.42089582490898325,0.5584617420726736,0.4667305950109449
0.42089582490898325,0.5584617420726736,0.7000629951010329
0.42089582490898325,0.5584617420726736,-2.432013158962783
0.42089582490898325,0.4667305950109449,-0.7501539417888679
0.42089582490898325,0.4667305950109449,0.5900749091029511
0.42089582490898325,0.4667305950109449,0.7000629951010329
0.42089582490898325,0.4667305950109449,-2.432013158962783
0.42089582490898325,0.7000629951010329,-0.7501539417888679
0.42089582490898325,0.7000629951010329,0.5900749091029511
0.42089582490898325,0.7000629951010329,-2.432013158962783
0.42089582490898325,-2.432013158962783,-0.7501539417888679
0.42089582490898325,-2.432013158962783,0.5900749091029511
0.42089582490898325,-0.7501539417888679,0.5900749091029511
0.010537933259695017,0.6102217223788303,-0.9778076358509719
0.010537933259695017,0.6102217223788303,0.5584617420726736
0.010537933259695017,0.6102217223788303,0.4667305950109449
0.010537933259695017,0.6102217223788303,0.7000629951010329
0.010537933259695017,0.6102217223788303,-2.432013158962783
0.010537933259695017,0.6102217223788303,-0.7501539417888679
0.010537933259695017,0.6102217223788303,0.5900749091029511
0.010537933259695017,-0.9778076358509719,0.5584617420726736
0.010537933259695017,-0.9778076358509719,0.4667305950109449
0.010537933259695017,-0.9778076358509719,0.7000629951010329
0.010537933259695017,-0.9778076358509719,-2.432013158962783
0.010537933259695017,-0.9778076358509719,-0.7501539417888679
0.010537933259695017,-0.9778076358509719,0.5900749091029511
0.010537933259695017,0.5584617420726736,-0.7501539417888679
0.010537933259695017,0.5584617420726736,0.5900749091029511
0.010537933259695017,0.5584617420726736,0.4667305950109449
0.010537933259695017,0.5584617420726736,0.7000629951010329
0.010537933259695017,0.5584617420726736,-2.432013158962783
0.010537933259695017,0.4667305950109449,-0.7501539417888679
0.010537933259695017,0.4667305950109449,0.5900749091029511
0.010537933259695017,0.4667305950109449,0.7000629951010329
0.010537933259695017,0.4667305950109449,-2.432013158962783
0.010537933259695017,0.7000629951010329,-0.7501539417888679
0.010537933259695017,0.7000629951010329,0.5900749091029511
0.010537933259695017,0.7000629951010329,-2.432013158962783
0.010537933259695017,-2.432013158962783,-0.7501539417888679
0.010537933259695017,-2.432013158962783,0.5900749091029511
0.010537933259695017,-0.7501539417888679,0.5900749091029511
0.6102217223788303,-0.9778076358509719,0.5584617420726736
0.6102217223788303,-0.9778076358509719,0.4667305950109449
0.6102217223788303,-0.9778076358509719,0.7000629951010329
0.6102217223788303,-0.9778076358509719,-2.432013158962783
0.6102217223788303,-0.9778076358509719,-0.7501539417888679
0.6102217223788303,-0.9778076358509719,0.5900749091029511
0.6102217223788303,0.5584617420726736,-0.7501539417888679
0.6102217223788303,0.5584617420726736,0.5900749091029511
0.6102217223788303,0.5584617420726736,0.4667305950109449
0.6102217223788303,0.5584617420726736,0.7000629951010329
0.6102217223788303,0.5584617420726736,-2.432013158962783
0.6102217223788303,0.4667305950109449,-0.7501539417888679
0.6102217223788303,0.4667305950109449,0.5900749091029511
0.6102217223788303,0.4667305950109449,0.7000629951010329
0.6102217223788303,0.4667305950109449,-2.432013158962783
0.6102217223788303,0.7000629951010329,-0.7501539417888679
0.6102217223788303,0.7000629951010329,0.5900749091029511
0.6102217223788303,0.7000629951010329,-2.432013158962783
0.6102217223788303,-2.432013158962783,-0.7501539417888679
0.6102217223788303,-2.432013158962783,0.5900749091029511
0.6102217223788303,-0.7501539417888679,0.5900749091029511
-0.9778076358509719,0.5584617420726736,-0.7501539417888679
-0.9778076358509719,0.5584617420726736,0.5900749091029511
-0.9778076358509719,0.5584617420726736,0.4667305950109449
-0.9778076358509719,0.5584617420726736,0.7000629951010329
-0.9778076358509719,0.5584617420726736,-2.432013158962783
-0.9778076358509719,0.4667305950109449,-0.7501539417888679
-0.9778076358509719,0.4667305950109449,0.5900749091029511
-0.9778076358509719,0.4667305950109449,0.7000629951010329
-0.9778076358509719,0.4667305950109449,-2.432013158962783
-0.9778076358509719,0.7000629951010329,-0.7501539417888679
-0.9778076358509719,0.7000629951010329,0.5900749091029511
-0.9778076358509719,0.7000629951010329,-2.432013158962783
-0.9778076358509719,-2.432013158962783,-0.7501539417888679
-0.9778076358509719,-2.432013158962783,0.5900749091029511
-0.9778076358509719,-0.7501539417888679,0.5900749091029511
0.5584617420726736,-0.7501539417888679,0.5900749091029511
0.5584617420726736,0.4667305950109449,-0.7501539417888679
0.5584617420726736,0.4667305950109449,0.5900749091029511
0.5584617420726736,0.4667305950109449,0.7000629951010329
0.5584617420726736,0.4667305950109449,-2.432013158962783
0.5584617420726736,0.7000629951010329,-0.7501539417888679
0.5584617420726736,0.7000629951010329,0.5900749091029511
0.5584617420726736,0.7000629951010329,-2.432013158962783
0.5584617420726736,-2.432013158962783,-0.7501539417888679
0.5584617420726736,-2.432013158962783,0.5900749091029511
0.4667305950109449,-0.7501539417888679,0.5900749091029511
0.4667305950109449,0.7000629951010329,-0.7501539417888679
0.4667305950109449,0.7000629951010329,0.5900749091029511
0.4667305950109449,0.7000629951010329,-2.432013158962783
0.4667305950109449,-2.432013158962783,-0.7501539417888679
0.4667305950109449,-2.432013158962783,0.5900749091029511
0.7000629951010329,-0.7501539417888679,0.5900749091029511
0.7000629951010329,-2.432013158962783,-0.7501539417888679
0.7000629951010329,-2.432013158962783,0.5900749091029511
-2.432013158962783,-0.7501539417888679,0.5900749091029511
