0,1,2
-0.6582675802706842,-0.07146425504900873,-1.6374198264718418
-0.6582675802706842,-0.07146425504900873,-0.7069844598522516
-0.6582675802706842,-0.07146425504900873,-1.1035922658847188
-0.6582675802706842,-0.07146425504900873,-0.04651158623482436
-0.6582675802706842,-0.07146425504900873,-1.284041309645274
-0.6582675802706842,-0.07146425504900873,-0.542433585774516
-0.6582675802706842,-0.07146425504900873,0.46150834054601403
-0.6582675802706842,-0.07146425504900873,1.3013166851666502
-0.6582675802706842,-1.6374198264718418,-0.7069844598522516
-0.6582675802706842,-1.6374198264718418,-1.1035922658847188
-0.6582675802706842,-1.6374198264718418,-0.04651158623482436
-0.6582675802706842,-1.6374198264718418,-1.284041309645274
-0.6582675802706842,-1.6374198264718418,-0.542433585774516
-0.6582675802706842,-1.6374198264718418,0.46150834054601403
-0.6582675802706842,-1.6374198264718418,1.3013166851666502
-0.6582675802706842,-0.7069844598522516,-1.1035922658847188
-0.6582675802706842,-0.7069844598522516,-0.04651158623482436
-0.6582675802706842,-0.7069844598522516,-1.284041309645274
-0.6582675802706842,-0.7069844598522516,-0.542433585774516
-0.6582675802706842,-0.7069844598522516,0.46150834054601403
-0.6582675802706842,-0.7069844598522516,1.3013166851666502
-0.6582675802706842,-1.1035922658847188,0.46150834054601403
-0.6582675802706842,-1.1035922658847188,1.3013166851666502
-0.6582675802706842,-1.1035922658847188,-0.04651158623482436
-0.6582675802706842,-1.1035922658847188,-1.284041309645274
-0.6582675802706842,-1.1035922658847188,-0.542433585774516
-0.6582675802706842,-0.04651158623482436,0.46150834054601403
-0.6582675802706842,-0.04651158623482436,1.3013166851666502
-0.6582675802706842,-0.04651158623482436,-1.284041309645274
-0.6582675802706842,-0.04651158623482436,-0.542433585774516
-0.6582675802706842,-1.284041309645274,0.46150834054601403
-0.6582675802706842,-1.284041309645274,1.3013166851666502
-0.6582675802706842,-1.284041309645274,-0.542433585774516
-0.6582675802706842,-0.542433585774516,0.46150834054601403
-0.6582675802706842,-0.542433585774516,1.3013166851666502
-0.6582675802706842,0.46150834054601403,1.3013166851666502
-0.07146425504900873,-1.6374198264718418,-0.7069844598522516
-0.07146425504900873,-1.6374198264718418,-1.1035922658847188
-0.07146425504900873,-1.6374198264718418,-0.04651158623482436
-0.07146425504900873,-1.6374198264718418,-1.284041309645274
-0.07146425504900873,-1.6374198264718418,-0.542433585774516
-0.07146425504900873,-1.6374198264718418,0.46150834054601403
-0.07146425504900873,-1.6374198264718418,1.3013166851666502
-0.07146425504900873,-0.7069844598522516,-1.1035922658847188
-0.07146425504900873,-0.7069844598522516,-0.04651158623482436
-0.07146425504900873,-0.7069844598522516,-1.284041309645274
-0.07146425504900873,-0.7069844598522516,-0.542433585774516
-0.07146425504900873,-0.7069844598522516,0.46150834054601403
-0.07146425504900873,-0.7069844598522516,1.3013166851666502
-0.07146425504900873,-1.1035922658847188,0.46150834054601403
-0.07146425504900873,-1.1035922658847188,1.3013166851666502
-0.07146425504900873,-1.1035922658847188,-0.04651158623482436
-0.07146425504900873,-1.1035922658847188,-1.284041309645274
-0.07146425504900873,-1.1035922658847188,-0.542433585774516
-0.07146425504900873,-0.04651158623482436,0.46150834054601403
-0.07146425504900873,-0.04651158623482436,1.3013166851666502
-0.07146425504900873,-0.04651158623482436,-1.284041309645274
-0.07146425504900873,-0.04651158623482436,-0.542433585774516
-0.07146425504900873,-1.284041309645274,0.46150834054601403
-0.07146425504900873,-1.284041309645274,1.3013166851666502
-0.07146425504900873,-1.284041309645274,-0.542433585774516
-0.07146425504900873,-0.542433585774516,0.46150834054601403
-0.07146425504900873,-0.542433585774516,1.3013166851666502
-0.07146425504900873,0.46150834054601403,1.3013166851666502
-1.6374198264718418,-0.7069844598522516,-1.1035922658847188
-1.6374198264718418,-0.7069844598522516,-0.04651158623482436
-1.6374198264718418,-0.7069844598522516,-1.284041309645274
-1.6374198264718418,-0.7069844598522516,-0.542433585774516
-1.6374198264718418,-0.7069844598522516,0.46150834054601403
-1.6374198264718418,-0.7069844598522516,1.3013166851666502
-1.6374198264718418,-1.1035922658847188,0.46150834054601403
-1.6374198264718418,-1.1035922658847188,1.3013166851666502
-1.6374198264718418,-1.1035922658847188,-0.04651158623482436
-1.6374198264718418,-1.1035922658847188,-1.284041309645274
-1.6374198264718418,-1.1035922658847188,-0.542433585774516
-1.6374198264718418,-0.04651158623482436,0.46150834054601403
-1.6374198264718418,-0.04651158623482436,1.3013166851666502
-1.6374198264718418,-0.04651158623482436,-1.284041309645274
-1.6374198264718418,-0.04651158623482436,-0.542433585774516
-1.6374198264718418,-1.284041309645274,0.46150834054601403
-1.6374198264718418,-1.284041309645274,1.3013166851666502
-1.6374198264718418,-1.284041309645274,-0.542433585774516
-1.6374198264718418,-0.542433585774516,0.46150834054601403
-1.6374198264718418,-0.542433585774516,1.3013166851666502
-1.6374198264718418,0.46150834054601403,1.3013166851666502
-0.7069844598522516,-1.1035922658847188,0.46150834054601403
-0.7069844598522516,-1.1035922658847188,1.3013166851666502
-0.7069844598522516,-1.1035922658847188,-0.04651158623482436
-0.7069844598522516,-1.1035922658847188,-1.284041309645274
-0.7069844598522516,-1.1035922658847188,-0.542433585774516
-0.7069844598522516,-0.04651158623482436,0.46150834054601403
-0.7069844598522516,-0.04651158623482436,1.3013166851666502
-0.7069844598522516,-0.04651158623482436,-1.284041309645274
-0.7069844598522516,-0.04651158623482436,-0.542433585774516
-0.7069844598522516,-1.284041309645274,0.46150834054601403
-0.7069844598522516,-1.284041309645274,1.3013166851666502
-0.7069844598522516,-1.284041309645274,-0.542433585774516
-0.7069844598522516,-0.542433585774516,0.46150834054601403
-0.7069844598522516,-0.542433585774516,1.3013166851666502
-0.7069844598522516,0.46150834054601403,1.3013166851666502
-1.1035922658847188,0.46150834054601403,1.3013166851666502
-1.1035922658847188,-0.04651158623482436,0.46150834054601403
-1.1035922658847188,-0.04651158623482436,1.3013166851666502
-1.1035922658847188,-0.04651158623482436,-1.284041309645274
-1.1035922658847188,-0.04651158623482436,-0.542433585774516
-1.1035922658847188,-1.284041309645274,0.46150834054601403
-1.1035922658847188,-1.284041309645274,1.3013166851666502
-1.1035922658847188,-1.284041309645274,-0.542433585774516
-1.1035922658847188,-0.542433585774516,0.46150834054601403
-1.1035922658847188,-0.542433585774516,1.3013166851666502
-0.04651158623482436,0.46150834054601403,1.3013166851666502
-0.04651158623482436,-1.284041309645274,0.46150834054601403
-0.04651158623482436,-1.284041309645274,1.3013166851666502
-0.04651158623482436,-1.284041309645274,-0.542433585774516
-0.04651158623482436,-0.542433585774516,0.46150834054601403
-0.04651158623482436,-0.542433585774516,1.3013166851666502
-1.284041309645274,0.46150834054601403,1.3013166851666502
-1.284041309645274,-0.542433585774516,0.46150834054601403
-1.284041309645274,-0.542433585774516,1.3013166851666502
-0.542433585774516,0.46150834054601403,1.3013166851666502
