0,1,2
-1.777818736947465,-1.4206111759539417,0.08520416059500185
-1.777818736947465,-1.4206111759539417,-0.6431714463546077
-1.777818736947465,-1.4206111759539417,0.6318950094705074
-1.777818736947465,-1.4206111759539417,-1.071248520939082
-1.777818736947465,-1.4206111759539417,-1.7050646502966094
-1.777818736947465,-1.4206111759539417,0.8542986530613396
-1.777818736947465,-1.4206111759539417,0.5982380520125864
-1.777818736947465,-1.4206111759539417,0.6986257096672377
-1.777818736947465,0.08520416059500185,-0.6431714463546077
-1.777818736947465,0.08520416059500185,0.6318950094705074
-1.777818736947465,0.08520416059500185,-1.071248520939082
-1.777818736947465,0.08520416059500185,-1.7050646502966094
-1.777818736947465,0.08520416059500185,0.8542986530613396
-1.777818736947465,0.08520416059500185,0.5982380520125864
-1.777818736947465,0.08520416059500185,0.6986257096672377
-1.777818736947465,-0.6431714463546077,0.6318950094705074
-1.777818736947465,-0.6431714463546077,-1.071248520939082
-1.777818736947465,-0.6431714463546077,-1.7050646502966094
-1.777818736947465,-0.6431714463546077,0.8542986530613396
-1.777818736947465,-0.6431714463546077,0.5982380520125864
-1.777818736947465,-0.6431714463546077,0.6986257096672377
-1.777818736947465,0.6318950094705074,0.5982380520125864
-1.777818736947465,0.6318950094705074,0.6986257096672377
-1.777818736947465,0.6318950094705074,-1.071248520939082
-1.777818736947465,0.6318950094705074,-1.7050646502966094
-1.777818736947465,0.6318950094705074,0.8542986530613396
-1.777818736947465,-1.071248520939082,0.5982380520125864
-1.777818736947465,-1.071248520939082,0.6986257096672377
-1.777818736947465,-1.071248520939082,-1.7050646502966094
-1.777818736947465,-1.071248520939082,0.8542986530613396
-1.777818736947465,-1.7050646502966094,0.5982380520125864
-1.777818736947465,-1.7050646502966094,0.6986257096672377
-1.777818736947465,-1.7050646502966094,0.8542986530613396
-1.777818736947465,0.8542986530613396,0.5982380520125864
-1.777818736947465,0.8542986530613396,0.6986257096672377
-1.777818736947465,0.5982380520125864,0.6986257096672377
-1.4206111759539417,0.08520416059500185,-0.6431714463546077
-1.4206111759539417,0.08520416059500185,0.6318950094705074
-1.4206111759539417,0.08520416059500185,-1.071248520939082
-1.4206111759539417,0.08520416059500185,-1.7050646502966094
-1.4206111759539417,0.08520416059500185,0.8542986530613396
-1.4206111759539417,0.08520416059500185,0.5982380520125864
-1.4206111759539417,0.08520416059500185,0.6986257096672377
-1.4206111759539417,-0.6431714463546077,0.6318950094705074
-1.4206111759539417,-0.6431714463546077,-1.071248520939082
-1.4206111759539417,-0.6431714463546077,-1.7050646502966094
-1.4206111759539417,-0.6431714463546077,0.8542986530613396
-1.4206111759539417,-0.6431714463546077,0.5982380520125864
-1.4206111759539417,-0.6431714463546077,0.6986257096672377
-1.4206111759539417,0.6318950094705074,0.5982380520125864
-1.4206111759539417,0.6318950094705074,0.6986257096672377
-1.4206111759539417,0.6318950094705074,-1.071248520939082
-1.4206111759539417,0.6318950094705074,-1.7050646502966094
-1.4206111759539417,0.6318950094705074,0.8542986530613396
-1.4206111759539417,-1.071248520939082,0.5982380520125864
-1.4206111759539417,-1.071248520939082,0.6986257096672377
-1.4206111759539417,-1.071248520939082,-1.7050646502966094
-1.4206111759539417,-1.071248520939082,0.8542986530613396
-1.4206111759539417,-1.7050646502966094,0.5982380520125864
-1.4206111759539417,-1.7050646502966094,0.6986257096672377
-1.4206111759539417,-1.7050646502966094,0.8542986530613396
-1.4206111759539417,0.8542986530613396,0.5982380520125864
-1.4206111759539417,0.8542986530613396,0.6986257096672377
-1.4206111759539417,0.5982380520125864,0.6986257096672377
0.08520416059500185,-0.6431714463546077,0.6318950094705074
0.08520416059500185,-0.6431714463546077,-1.071248520939082
0.08520416059500185,-0.6431714463546077,-1.7050646502966094
0.08520416059500185,-0.6431714463546077,0.8542986530613396
0.08520416059500185,-0.6431714463546077,0.5982380520125864
0.08520416059500185,-0.6431714463546077,0.6986257096672377
0.08520416059500185,0.6318950094705074,0.5982380520125864
0.08520416059500185,0.6318950094705074,0.6986257096672377
0.08520416059500185,0.6318950094705074,-1.071248520939082
0.08520416059500185,0.6318950094705074,-1.7050646502966094
0.08520416059500185,0.6318950094705074,0.8542986530613396
0.08520416059500185,-1.071248520939082,0.5982380520125864
0.08520416059500185,-1.071248520939082,0.6986257096672377
0.08520416059500185,-1.071248520939082,-1.7050646502966094
0.08520416059500185,-1.071248520939082,0.8542986530613396
0.08520416059500185,-1.7050646502966094,0.5982380520125864
0.08520416059500185,-1.7050646502966094,0.6986257096672377
0.08520416059500185,-1.7050646502966094,0.8542986530613396
0.08520416059500185,0.8542986530613396,0.5982380520125864
0.08520416059500185,0.8542986530613396,0.6986257096672377
0.08520416059500185,0.5982380520125864,0.6986257096672377
-0.6431714463546077,0.6318950094705074,0.5982380520125864
-0.6431714463546077,0.6318950094705074,0.6986257096672377
-0.6431714463546077,0.6318950094705074,-1.071248520939082
-0.6431714463546077,0.6318950094705074,-1.7050646502966094
-0.6431714463546077,0.6318950094705074,0.8542986530613396
-0.6431714463546077,-1.071248520939082,0.5982380520125864
-0.6431714463546077,-1.071248520939082,0.6986257096672377
-0.6431714463546077,-1.071248520939082,-1.7050646502966094
-0.6431714463546077,-1.071248520939082,0.8542986530613396
-0.6431714463546077,-1.7050646502966094,0.5982380520125864
-0.6431714463546077,-1.7050646502966094,0.6986257096672377
-0.6431714463546077,-1.7050646502966094,0.8542986530613396
-0.6431714463546077,0.8542986530613396,0.5982380520125864
-0.6431714463546077,0.8542986530613396,0.6986257096672377
-0.6431714463546077,0.5982380520125864,0.6986257096672377
0.6318950094705074,0.5982380520125864,0.6986257096672377
0.6318950094705074,-1.071248520939082,0.5982380520125864
0.6318950094705074,-1.071248520939082,0.6986257096672377
0.6318950094705074,-1.071248520939082,-1.7050646502966094
0.6318950094705074,-1.071248520939082,0.8542986530613396
0.6318950094705074,-1.7050646502966094,0.5982380520125864
0.6318950094705074,-1.7050646502966094,0.6986257096672377
0.6318950094705074,-1.7050646502966094,0.8542986530613396
0.6318950094705074,0.8542986530613396,0.5982380520125864
0.6318950094705074,0.8542986530613396,0.6986257096672377
-1.071248520939082,0.5982380520125864,0.6986257096672377
-1.071248520939082,-1.7050646502966094,0.5982380520125864
-1.071248520939082,-1.7050646502966094,0.6986257096672377
-1.071248520939082,-1.7050646502966094,0.8542986530613396
-1.071248520939082,0.8542986530613396,0.5982380520125864
-1.071248520939082,0.8542986530613396,0.6986257096672377
-1.7050646502966094,0.5982380520125864,0.6986257096672377
-1.7050646502966094,0.8542986530613396,0.5982380520125864
-1.7050646502966094,0.8542986530613396,0.6986257096672377
0.8542986530613396,0.5982380520125864,0.6986257096672377
