0,1,2
-0.17579922389454225,1.237623520135074,-1.7631966830128774
-0.17579922389454225,1.237623520135074,-0.8611973170438664
-0.17579922389454225,1.237623520135074,-0.3495987509581326
-0.17579922389454225,1.237623520135074,0.6245530127287043
-0.17579922389454225,1.237623520135074,0.7478898558033343
-0.17579922389454225,1.237623520135074,-2.3354307209819103
-0.17579922389454225,1.237623520135074,0.6072308358777577
-0.17579922389454225,1.237623520135074,0.37766513789031797
-0.17579922389454225,-1.7631966830128774,-0.8611973170438664
-0.17579922389454225,-1.7631966830128774,-0.3495987509581326
-0.17579922389454225,-1.7631966830128774,0.6245530127287043
-0.17579922389454225,-1.7631966830128774,0.7478898558033343
-0.17579922389454225,-1.7631966830128774,-2.3354307209819103
-0.17579922389454225,-1.7631966830128774,0.6072308358777577
-0.17579922389454225,-1.7631966830128774,0.37766513789031797
-0.17579922389454225,-0.8611973170438664,-0.3495987509581326
-0.17579922389454225,-0.8611973170438664,0.6245530127287043
-0.17579922389454225,-0.8611973170438664,0.7478898558033343
-0.17579922389454225,-0.8611973170438664,-2.3354307209819103
-0.17579922389454225,-0.8611973170438664,0.6072308358777577
-0.17579922389454225,-0.8611973170438664,0.37766513789031797
-0.17579922389454225,-0.3495987509581326,0.6072308358777577
-0.17579922389454225,-0.3495987509581326,0.37766513789031797
-0.17579922389454225,-0.3495987509581326,0.6245530127287043
-0.17579922389454225,-0.3495987509581326,0.7478898558033343
-0.17579922389454225,-0.3495987509581326,-2.3354307209819103
-0.17579922389454225,0.6245530127287043,0.6072308358777577
-0.17579922389454225,0.6245530127287043,0.37766513789031797
-0.17579922389454225,0.6245530127287043,0.7478898558033343
-0.17579922389454225,0.6245530127287043,-2.3354307209819103
-0.17579922389454225,0.7478898558033343,0.6072308358777577
-0.17579922389454225,0.7478898558033343,0.37766513789031797
-0.17579922389454225,0.7478898558033343,-2.3354307209819103
-0.17579922389454225,-2.3354307209819103,0.6072308358777577
-0.17579922389454225,-2.3354307209819103,0.37766513789031797
-0.17579922389454225,0.6072308358777577,0.37766513789031797
1.237623520135074,-1.7631966830128774,-0.8611973170438664
1.237623520135074,-1.7631966830128774,-0.3495987509581326
1.237623520135074,-1.7631966830128774,0.6245530127287043
1.237623520135074,-1.7631966830128774,0.7478898558033343
1.237623520135074,-1.7631966830128774,-2.3354307209819103
1.237623520135074,-1.7631966830128774,0.6072308358777577
1.237623520135074,-1.7631966830128774,0.37766513789031797
1.237623520135074,-0.8611973170438664,-0.3495987509581326
1.237623520135074,-0.8611973170438664,0.6245530127287043
1.237623520135074,-0.8611973170438664,0.7478898558033343
1.237623520135074,-0.8611973170438664,-2.3354307209819103
1.237623520135074,-0.8611973170438664,0.6072308358777577
1.237623520135074,-0.8611973170438664,0.37766513789031797
1.237623520135074,-0.3495987509581326,0.6072308358777577
1.237623520135074,-0.3495987509581326,0.37766513789031797
1.237623520135074,-0.3495987509581326,0.6245530127287043
1.237623520135074,-0.3495987509581326,0.7478898558033343
1.237623520135074,-0.3495987509581326,-2.3354307209819103
1.237623520135074,0.6245530127287043,0.6072308358777577
1.237623520135074,0.6245530127287043,0.37766513789031797
1.237623520135074,0.6245530127287043,0.7478898558033343
1.237623520135074,0.6245530127287043,-2.3354307209819103
1.237623520135074,0.7478898558033343,0.6072308358777577
1.237623520135074,0.7478898558033343,0.37766513789031797
1.237623520135074,0.7478898558033343,-2.3354307209819103
1.237623520135074,-2.3354307209819103,0.6072308358777577
1.237623520135074,-2.3354307209819103,0.37766513789031797
1.237623520135074,0.6072308358777577,0.37766513789031797
-1.7631966830128774,-0.8611973170438664,-0.3495987509581326
-1.7631966830128774,-0.8611973170438664,0.6245530127287043
-1.7631966830128774,-0.8611973170438664,0.7478898558033343
-1.7631966830128774,-0.8611973170438664,-2.3354307209819103
-1.7631966830128774,-0.8611973170438664,0.6072308358777577
-1.7631966830128774,-0.8611973170438664,0.37766513789031797
-1.7631966830128774,-0.3495987509581326,0.6072308358777577
-1.7631966830128774,-0.3495987509581326,0.37766513789031797
-1.7631966830128774,-0.3495987509581326,0.6245530127287043
-1.7631966830128774,-0.3495987509581326,0.7478898558033343
-1.7631966830128774,-0.3495987509581326,-2.3354307209819103
-1.7631966830128774,0.6245530127287043,0.6072308358777577
-1.7631966830128774,0.6245530127287043,0.37766513789031797
-1.7631966830128774,0.6245530127287043,0.7478898558033343
-1.7631966830128774,0.6245530127287043,-2.3354307209819103
-1.7631966830128774,0.7478898558033343,0.6072308358777577
-1.7631966830128774,0.7478898558033343,0.37766513789031797
-1.7631966830128774,0.7478898558033343,-2.3354307209819103
-1.7631966830128774,-2.3354307209819103,0.6072308358777577
-1.7631966830128774,-2.3354307209819103,0.37766513789031797
-1.7631966830128774,0.6072308358777577,0.37766513789031797
-0.8611973170438664,-0.3495987509581326,0.6072308358777577
-0.8611973170438664,-0.3495987509581326,0.37766513789031797
-0.8611973170438664,-0.3495987509581326,0.6245530127287043
-0.8611973170438664,-0.3495987509581326,0.7478898558033343
-0.8611973170438664,-0.3495987509581326,-2.3354307209819103
-0.8611973170438664,0.6245530127287043,0.6072308358777577
-0.8611973170438664,0.6245530127287043,0.37766513789031797
-0.8611973170438664,0.6245530127287043,0.7478898558033343
-0.8611973170438664,0.6245530127287043,-2.3354307209819103
-0.8611973170438664,0.7478898558033343,0.6072308358777577
-0.8611973170438664,0.7478898558033343,0.37766513789031797
-0.8611973170438664,0.7478898558033343,-2.3354307209819103
-0.8611973170438664,-2.3354307209819103,0.6072308358777577
-0.8611973170438664,-2.3354307209819103,0.37766513789031797
-0.8611973170438664,0.6072308358777577,0.37766513789031797
-0.3495987509581326,0.6072308358777577,0.37766513789031797
-0.3495987509581326,0.6245530127287043,0.6072308358777577
-0.3495987509581326,0.6245530127287043,0.37766513789031797
-0.3495987509581326,0.6245530127287043,0.7478898558033343
-0.3495987509581326,0.6245530127287043,-2.3354307209819103
-0.3495987509581326,0.7478898558033343,0.6072308358777577
-0.3495987509581326,0.7478898558033343,0.37766513789031797
-0.3495987509581326,0.7478898558033343,-2.3354307209819103
-0.3495987509581326,-2.3354307209819103,0.6072308358777577
-0.3495987509581326,-2.3354307209819103,0.37766513789031797
0.6245530127287043,0.6072308358777577,0.37766513789031797
0.6245530127287043,0.7478898558033343,0.6072308358777577
0.6245530127287043,0.7478898558033343,0.37766513789031797
0.6245530127287043,0.7478898558033343,-2.3354307209819103
0.6245530127287043,-2.3354307209819103,0.6072308358777577
0.6245530127287043,-2.3354307209819103,0.37766513789031797
0.7478898558033343,0.6072308358777577,0.37766513789031797
0.7478898558033343,-2.3354307209819103,0.6072308358777577
0.7478898558033343,-2.3354307209819103,0.37766513789031797
-2.3354307209819103,0.6072308358777577,0.37766513789031797
