0,1,2
-0.6182003808338374,1.6321576517991285,2.3634674464768417
-0.6182003808338374,1.6321576517991285,1.585372172769826
-0.6182003808338374,1.6321576517991285,0.22494654052947965
-0.6182003808338374,1.6321576517991285,0.845412832474786
-0.6182003808338374,1.6321576517991285,-0.5678193900129112
-0.6182003808338374,1.6321576517991285,-0.8346144435471818
-0.6182003808338374,1.6321576517991285,-0.9401844225428638
-0.6182003808338374,1.6321576517991285,-0.31972240489274445
-0.6182003808338374,2.3634674464768417,1.585372172769826
-0.6182003808338374,2.3634674464768417,0.22494654052947965
-0.6182003808338374,2.3634674464768417,0.845412832474786
-0.6182003808338374,2.3634674464768417,-0.5678193900129112
-0.6182003808338374,2.3634674464768417,-0.8346144435471818
-0.6182003808338374,2.3634674464768417,-0.9401844225428638
-0.6182003808338374,2.3634674464768417,-0.31972240489274445
-0.6182003808338374,1.585372172769826,0.22494654052947965
-0.6182003808338374,1.585372172769826,0.845412832474786
-0.6182003808338374,1.585372172769826,-0.5678193900129112
-0.6182003808338374,1.585372172769826,-0.8346144435471818
-0.6182003808338374,1.585372172769826,-0.9401844225428638
-0.6182003808338374,1.585372172769826,-0.31972240489274445
-0.6182003808338374,0.22494654052947965,-0.9401844225428638
-0.6182003808338374,0.22494654052947965,-0.31972240489274445
-0.6182003808338374,0.22494654052947965,0.845412832474786
-0.6182003808338374,0.22494654052947965,-0.5678193900129112
-0.6182003808338374,0.22494654052947965,-0.8346144435471818
-0.6182003808338374,0.845412832474786,-0.9401844225428638
-0.6182003808338374,0.845412832474786,-0.31972240489274445
-0.6182003808338374,0.845412832474786,-0.5678193900129112
-0.6182003808338374,0.845412832474786,-0.8346144435471818
-0.6182003808338374,-0.5678193900129112,-0.9401844225428638
-0.6182003808338374,-0.5678193900129112,-0.31972240489274445
-0.6182003808338374,-0.5678193900129112,-0.8346144435471818
-0.6182003808338374,-0.8346144435471818,-0.9401844225428638
-0.6182003808338374,-0.8346144435471818,-0.31972240489274445
-0.6182003808338374,-0.9401844225428638,-0.31972240489274445
1.6321576517991285,2.3634674464768417,1.585372172769826
1.6321576517991285,2.3634674464768417,0.22494654052947965
1.6321576517991285,2.3634674464768417,0.845412832474786
1.6321576517991285,2.3634674464768417,-0.5678193900129112
1.6321576517991285,2.3634674464768417,-0.8346144435471818
1.6321576517991285,2.3634674464768417,-0.9401844225428638
1.6321576517991285,2.3634674464768417,-0.31972240489274445
1.6321576517991285,1.585372172769826,0.22494654052947965
1.6321576517991285,1.585372172769826,0.845412832474786
1.6321576517991285,1.585372172769826,-0.5678193900129112
1.6321576517991285,1.585372172769826,-0.8346144435471818
1.6321576517991285,1.585372172769826,-0.9401844225428638
1.6321576517991285,1.585372172769826,-0.31972240489274445
1.6321576517991285,0.22494654052947965,-0.9401844225428638
1.6321576517991285,0.22494654052947965,-0.31972240489274445
1.6321576517991285,0.22494654052947965,0.845412832474786
1.6321576517991285,0.22494654052947965,-0.5678193900129112
1.6321576517991285,0.22494654052947965,-0.8346144435471818
1.6321576517991285,0.845412832474786,-0.9401844225428638
1.6321576517991285,0.845412832474786,-0.31972240489274445
1.6321576517991285,0.845412832474786,-0.5678193900129112
1.6321576517991285,0.845412832474786,-0.8346144435471818
1.6321576517991285,-0.5678193900129112,-0.9401844225428638
1.6321576517991285,-0.5678193900129112,-0.31972240489274445
1.6321576517991285,-0.5678193900129112,-0.8346144435471818
1.6321576517991285,-0.8346144435471818,-0.9401844225428638
1.6321576517991285,-0.8346144435471818,-0.31972240489274445
1.6321576517991285,-0.9401844225428638,-0.31972240489274445
2.3634674464768417,1.585372172769826,0.22494654052947965
2.3634674464768417,1.585372172769826,0.845412832474786
2.3634674464768417,1.585372172769826,-0.5678193900129112
2.3634674464768417,1.585372172769826,-0.8346144435471818
2.3634674464768417,1.585372172769826,-0.9401844225428638
2.3634674464768417,1.585372172769826,-0.31972240489274445
2.3634674464768417,0.22494654052947965,-0.9401844225428638
2.3634674464768417,0.22494654052947965,-0.31972240489274445
2.3634674464768417,0.22494654052947965,0.845412832474786
2.3634674464768417,0.22494654052947965,-0.5678193900129112
2.3634674464768417,0.22494654052947965,-0.8346144435471818
2.3634674464768417,0.845412832474786,-0.9401844225428638
2.3634674464768417,0.845412832474786,-0.31972240489274445
2.3634674464768417,0.845412832474786,-0.5678193900129112
2.3634674464768417,0.845412832474786,-0.8346144435471818
2.3634674464768417,-0.5678193900129112,-0.9401844225428638
2.3634674464768417,-0.5678193900129112,-0.31972240489274445
2.3634674464768417,-0.5678193900129112,-0.8346144435471818
2.3634674464768417,-0.8346144435471818,-0.9401844225428638
2.3634674464768417,-0.8346144435471818,-0.31972240489274445
2.3634674464768417,-0.9401844225428638,-0.31972240489274445
1.585372172769826,0.22494654052947965,-0.9401844225428638
1.585372172769826,0.22494654052947965,-0.31972240489274445
1.585372172769826,0.22494654052947965,0.845412832474786
1.585372172769826,0.22494654052947965,-0.5678193900129112
1.585372172769826,0.22494654052947965,-0.8346144435471818
1.585372172769826,0.845412832474786,-0.9401844225428638
1.585372172769826,0.845412832474786,-0.31972240489274445
1.585372172769826,0.845412832474786,-0.5678193900129112
1.585372172769826,0.845412832474786,-0.8346144435471818
1.585372172769826,-0.5678193900129112,-0.9401844225428638
1.585372172769826,-0.5678193900129112,-0.31972240489274445
1.585372172769826,-0.5678193900129112,-0.8346144435471818
1.585372172769826,-0.8346144435471818,-0.9401844225428638
1.585372172769826,-0.8346144435471818,-0.31972240489274445
1.585372172769826,-0.9401844225428638,-0.31972240489274445
0.22494654052947965,-0.9401844225428638,-0.31972240489274445
0.22494654052947965,0.845412832474786,-0.9401844225428638
0.22494654052947965,0.845412832474786,-0.31972240489274445
0.22494654052947965,0.845412832474786,-0.5678193900129112
0.22494654052947965,0.845412832474786,-0.8346144435471818
0.22494654052947965,-0.5678193900129112,-0.9401844225428638
0.22494654052947965,-0.5678193900129112,-0.31972240489274445
0.22494654052947965,-0.5678193900129112,-0.8346144435471818
0.22494654052947965,-0.8346144435471818,-0.9401844225428638
0.22494654052947965,-0.8346144435471818,-0.31972240489274445
0.845412832474786,-0.9401844225428638,-0.31972240489274445
0.845412832474786,-0.5678193900129112,-0.9401844225428638
0.845412832474786,-0.5678193900129112,-0.31972240489274445
0.845412832474786,-0.5678193900129112,-0.8346144435471818
0.845412832474786,-0.8346144435471818,-0.9401844225428638
0.845412832474786,-0.8346144435471818,-0.31972240489274445
-0.5678193900129112,-0.9401844225428638,-0.31972240489274445
-0.5678193900129112,-0.8346144435471818,-0.9401844225428638
-0.5678193900129112,-0.8346144435471818,-0.31972240489274445
-0.8346144435471818,-0.9401844225428638,-0.31972240489274445
