0,1,2
1.0417972964336994,0.28430635824326483,0.7022509570026687
1.0417972964336994,0.28430635824326483,-0.40500905709020213
1.0417972964336994,0.28430635824326483,-0.9249827883655797
1.0417972964336994,0.28430635824326483,0.5641921872685243
1.0417972964336994,0.28430635824326483,0.4665783198670495
1.0417972964336994,0.28430635824326483,1.111321560230268
1.0417972964336994,0.28430635824326483,1.5761995090145515
1.0417972964336994,0.28430635824326483,-0.40172221845000083
1.0417972964336994,0.7022509570026687,-0.40500905709020213
1.0417972964336994,0.7022509570026687,-0.9249827883655797
1.0417972964336994,0.7022509570026687,0.5641921872685243
1.0417972964336994,0.7022509570026687,0.4665783198670495
1.0417972964336994,0.7022509570026687,1.111321560230268
1.0417972964336994,0.7022509570026687,1.5761995090145515
1.0417972964336994,0.7022509570026687,-0.40172221845000083
1.0417972964336994,-0.40500905709020213,-0.9249827883655797
1.0417972964336994,-0.40500905709020213,0.5641921872685243
1.0417972964336994,-0.40500905709020213,0.4665783198670495
1.0417972964336994,-0.40500905709020213,1.111321560230268
1.0417972964336994,-0.40500905709020213,1.5761995090145515
1.0417972964336994,-0.40500905709020213,-0.40172221845000083
1.0417972964336994,-0.9249827883655797,1.5761995090145515
1.0417972964336994,-0.9249827883655797,-0.40172221845000083
1.0417972964336994,-0.9249827883655797,0.5641921872685243
1.0417972964336994,-0.9249827883655797,0.4665783198670495
1.0417972964336994,-0.9249827883655797,1.111321560230268
1.0417972964336994,0.5641921872685243,1.5761995090145515
1.0417972964336994,0.5641921872685243,-0.40172221845000083
1.0417972964336994,0.5641921872685243,0.4665783198670495
1.0417972964336994,0.5641921872685243,1.111321560230268
1.0417972964336994,0.4665783198670495,1.5761995090145515
1.0417972964336994,0.4665783198670495,-0.40172221845000083
1.0417972964336994,0.4665783198670495,1.111321560230268
1.0417972964336994,1.111321560230268,1.5761995090145515
1.0417972964336994,1.111321560230268,-0.40172221845000083
1.0417972964336994,1.5761995090145515,-0.40172221845000083
0.28430635824326483,0.7022509570026687,-0.40500905709020213
0.28430635824326483,0.7022509570026687,-0.9249827883655797
0.28430635824326483,0.7022509570026687,0.5641921872685243
0.28430635824326483,0.7022509570026687,0.4665783198670495
0.28430635824326483,0.7022509570026687,1.111321560230268
0.28430635824326483,0.7022509570026687,1.5761995090145515
0.28430635824326483,0.7022509570026687,-0.40172221845000083
0.28430635824326483,-0.40500905709020213,-0.9249827883655797
0.28430635824326483,-0.40500905709020213,0.5641921872685243
0.28430635824326483,-0.40500905709020213,0.4665783198670495
0.28430635824326483,-0.40500905709020213,1.111321560230268
0.28430635824326483,-0.40500905709020213,1.5761995090145515
0.28430635824326483,-0.40500905709020213,-0.40172221845000083
0.28430635824326483,-0.9249827883655797,1.5761995090145515
0.28430635824326483,-0.9249827883655797,-0.40172221845000083
0.28430635824326483,-0.9249827883655797,0.5641921872685243
0.28430635824326483,-0.9249827883655797,0.4665783198670495
0.28430635824326483,-0.9249827883655797,1.111321560230268
0.28430635824326483,0.5641921872685243,1.5761995090145515
0.28430635824326483,0.5641921872685243,-0.40172221845000083
0.28430635824326483,0.5641921872685243,0.4665783198670495
0.28430635824326483,0.5641921872685243,1.111321560230268
0.28430635824326483,0.4665783198670495,1.5761995090145515
0.28430635824326483,0.4665783198670495,-0.40172221845000083
0.28430635824326483,0.4665783198670495,1.111321560230268
0.28430635824326483,1.111321560230268,1.5761995090145515
0.28430635824326483,1.111321560230268,-0.40172221845000083
0.28430635824326483,1.5761995090145515,-0.40172221845000083
0.7022509570026687,-0.40500905709020213,-0.9249827883655797
0.7022509570026687,-0.40500905709020213,0.5641921872685243
0.7022509570026687,-0.40500905709020213,0.4665783198670495
0.7022509570026687,-0.40500905709020213,1.111321560230268
0.7022509570026687,-0.40500905709020213,1.5761995090145515
0.7022509570026687,-0.40500905709020213,-0.40172221845000083
0.7022509570026687,-0.9249827883655797,1.5761995090145515
0.7022509570026687,-0.9249827883655797,-0.40172221845000083
0.7022509570026687,-0.9249827883655797,0.5641921872685243
0.7022509570026687,-0.9249827883655797,0.4665783198670495
0.7022509570026687,-0.9249827883655797,1.111321560230268
0.7022509570026687,0.5641921872685243,1.5761995090145515
0.7022509570026687,0.5641921872685243,-0.40172221845000083
0.7022509570026687,0.5641921872685243,0.4665783198670495
0.7022509570026687,0.5641921872685243,1.111321560230268
0.7022509570026687,0.4665783198670495,1.5761995090145515
0.7022509570026687,0.4665783198670495,-0.40172221845000083
0.7022509570026687,0.4665783198670495,1.111321560230268
0.7022509570026687,1.111321560230268,1.5761995090145515
0.7022509570026687,1.111321560230268,-0.40172221845000083
0.7022509570026687,1.5761995090145515,-0.40172221845000083
-0.40500905709020213,-0.9249827883655797,1.5761995090145515
-0.40500905709020213,-0.9249827883655797,-0.40172221845000083
-0.40500905709020213,-0.9249827883655797,0.5641921872685243
-0.40500905709020213,-0.9249827883655797,0.4665783198670495
-0.40500905709020213,-0.9249827883655797,1.111321560230268
-0.40500905709020213,0.5641921872685243,1.5761995090145515
-0.40500905709020213,0.5641921872685243,-0.40172221845000083
-0.40500905709020213,0.5641921872685243,0.4665783198670495
-0.40500905709020213,0.5641921872685243,1.111321560230268
-0.40500905709020213,0.4665783198670495,1.5761995090145515
-0.40500905709020213,0.4665783198670495,-0.40172221845000083
-0.40500905709020213,0.4665783198670495,1.111321560230268
-0.40500905709020213,1.111321560230268,1.5761995090145515
-0.40500905709020213,1.111321560230268,-0.40172221845000083
-0.40500905709020213,1.5761995090145515,-0.40172221845000083
-0.9249827883655797,1.5761995090145515,-0.40172221845000083
-0.9249827883655797,0.5641921872685243,1.5761995090145515
-0.9249827883655797,0.5641921872685243,-0.40172221845000083
-0.9249827883655797,0.5641921872685243,0.4665783198670495
-0.9249827883655797,0.5641921872685243,1.111321560230268
-0.9249827883655797,0.4665783198670495,1.5761995090145515
-0.9249827883655797,0.4665783198670495,-0.40172221845000083
-0.9249827883655797,0.4665783198670495,1.111321560230268
-0.9249827883655797,1.111321560230268,1.5761995090145515
-0.9249827883655797,1.111321560230268,-0.40172221845000083
0.5641921872685243,1.5761995090145515,-0.40172221845000083
0.5641921872685243,0.4665783198670495,1.5761995090145515
0.5641921872685243,0.4665783198670495,-0.40172221845000083
0.5641921872685243,0.4665783198670495,1.111321560230268
0.5641921872685243,1.111321560230268,1.5761995090145515
0.5641921872685243,1.111321560230268,-0.40172221845000083
0.4665783198670495,1.5761995090145515,-0.40172221845000083
0.4665783198670495,1.111321560230268,1.5761995090145515
0.4665783198670495,1.111321560230268,-0.40172221845000083
1.111321560230268,1.5761995090145515,-0.40172221845000083
