0,1,2
0.678761240101043,-1.8569144285398655,1.0383892782324207
0.678761240101043,-1.8569144285398655,0.40810388436661865
0.678761240101043,-1.8569144285398655,0.43795385029767775
0.678761240101043,-1.8569144285398655,0.7684275778877548
0.678761240101043,-1.8569144285398655,-0.47385748928219235
0.678761240101043,-1.8569144285398655,0.01514226394283648
0.678761240101043,-1.8569144285398655,0.4436779769811176
0.678761240101043,-1.8569144285398655,-0.2615765913870643
0.678761240101043,1.0383892782324207,0.40810388436661865
0.678761240101043,1.0383892782324207,0.43795385029767775
0.678761240101043,1.0383892782324207,0.7684275778877548
0.678761240101043,1.0383892782324207,-0.47385748928219235
0.678761240101043,1.0383892782324207,0.01514226394283648
0.678761240101043,1.0383892782324207,0.4436779769811176
0.678761240101043,1.0383892782324207,-0.2615765913870643
0.678761240101043,0.40810388436661865,0.43795385029767775
0.678761240101043,0.40810388436661865,0.7684275778877548
0.678761240101043,0.40810388436661865,-0.47385748928219235
0.678761240101043,0.40810388436661865,0.01514226394283648
0.678761240101043,0.40810388436661865,0.4436779769811176
0.678761240101043,0.40810388436661865,-0.2615765913870643
0.678761240101043,0.43795385029767775,0.4436779769811176
0.678761240101043,0.43795385029767775,-0.2615765913870643
0.678761240101043,0.43795385029767775,0.7684275778877548
0.678761240101043,0.43795385029767775,-0.47385748928219235
0.678761240101043,0.43795385029767775,0.01514226394283648
0.678761240101043,0.7684275778877548,0.4436779769811176
0.678761240101043,0.7684275778877548,-0.2615765913870643
0.678761240101043,0.7684275778877548,-0.47385748928219235
0.678761240101043,0.7684275778877548,0.01514226394283648
0.678761240101043,-0.47385748928219235,0.4436779769811176
0.678761240101043,-0.47385748928219235,-0.2615765913870643
0.678761240101043,-0.47385748928219235,0.01514226394283648
0.678761240101043,0.01514226394283648,0.4436779769811176
0.678761240101043,0.01514226394283648,-0.2615765913870643
0.678761240101043,0.4436779769811176,-0.2615765913870643
-1.8569144285398655,1.0383892782324207,0.40810388436661865
-1.8569144285398655,1.0383892782324207,0.43795385029767775
-1.8569144285398655,1.0383892782324207,0.7684275778877548
-1.8569144285398655,1.0383892782324207,-0.47385748928219235
-1.8569144285398655,1.0383892782324207,0.01514226394283648
-1.8569144285398655,1.0383892782324207,0.4436779769811176
-1.8569144285398655,1.0383892782324207,-0.2615765913870643
-1.8569144285398655,0.40810388436661865,0.43795385029767775
-1.8569144285398655,0.40810388436661865,0.7684275778877548
-1.8569144285398655,0.40810388436661865,-0.47385748928219235
-1.8569144285398655,0.40810388436661865,0.01514226394283648
-1.8569144285398655,0.40810388436661865,0.4436779769811176
-1.8569144285398655,0.40810388436661865,-0.2615765913870643
-1.8569144285398655,0.43795385029767775,0.4436779769811176
-1.8569144285398655,0.43795385029767775,-0.2615765913870643
-1.8569144285398655,0.43795385029767775,0.7684275778877548
-1.8569144285398655,0.43795385029767775,-0.47385748928219235
-1.8569144285398655,0.43795385029767775,0.01514226394283648
-1.8569144285398655,0.7684275778877548,0.4436779769811176
-1.8569144285398655,0.7684275778877548,-0.2615765913870643
-1.8569144285398655,0.7684275778877548,-0.47385748928219235
-1.8569144285398655,0.7684275778877548,0.01514226394283648
-1.8569144285398655,-0.47385748928219235,0.4436779769811176
-1.8569144285398655,-0.47385748928219235,-0.2615765913870643
-1.8569144285398655,-0.47385748928219235,0.01514226394283648
-1.8569144285398655,0.01514226394283648,0.4436779769811176
-1.8569144285398655,0.01514226394283648,-0.2615765913870643
-1.8569144285398655,0.4436779769811176,-0.2615765913870643
1.0383892782324207,0.40810388436661865,0.43795385029767775
1.0383892782324207,0.40810388436661865,0.7684275778877548
1.0383892782324207,0.40810388436661865,-0.47385748928219235
1.0383892782324207,0.40810388436661865,0.01514226394283648
1.0383892782324207,0.40810388436661865,0.4436779769811176
1.0383892782324207,0.40810388436661865,-0.2615765913870643
1.0383892782324207,0.43795385029767775,0.4436779769811176
1.0383892782324207,0.43795385029767775,-0.2615765913870643
1.0383892782324207,0.43795385029767775,0.7684275778877548
1.0383892782324207,0.43795385029767775,-0.47385748928219235
1.0383892782324207,0.43795385029767775,0.01514226394283648
1.0383892782324207,0.7684275778877548,0.4436779769811176
1.0383892782324207,0.7684275778877548,-0.2615765913870643
1.0383892782324207,0.7684275778877548,-0.47385748928219235
1.0383892782324207,0.7684275778877548,0.01514226394283648
1.0383892782324207,-0.47385748928219235,0.4436779769811176
1.0383892782324207,-0.47385748928219235,-0.2615765913870643
1.0383892782324207,-0.47385748928219235,0.01514226394283648
1.0383892782324207,0.01514226394283648,0.4436779769811176
1.0383892782324207,0.01514226394283648,-0.2615765913870643
1.0383892782324207,0.4436779769811176,-0.2615765913870643
0.40810388436661865,0.43795385029767775,0.4436779769811176
0.40810388436661865,0.43795385029767775,-0.2615765913870643
0.40810388436661865,0.43795385029767775,0.7684275778877548
0.40810388436661865,0.43795385029767775,-0.47385748928219235
0.40810388436661865,0.43795385029767775,0.01514226394283648
0.40810388436661865,0.7684275778877548,0.4436779769811176
0.40810388436661865,0.7684275778877548,-0.2615765913870643
0.40810388436661865,0.7684275778877548,-0.47385748928219235
0.40810388436661865,0.7684275778877548,0.01514226394283648
0.40810388436661865,-0.47385748928219235,0.4436779769811176
0.40810388436661865,-0.47385748928219235,-0.2615765913870643
0.40810388436661865,-0.47385748928219235,0.01514226394283648
0.40810388436661865,0.01514226394283648,0.4436779769811176
0.40810388436661865,0.01514226394283648,-0.2615765913870643
0.40810388436661865,0.4436779769811176,-0.2615765913870643
0.43795385029767775,0.4436779769811176,-0.2615765913870643
0.43795385029767775,0.7684275778877548,0.4436779769811176
0.43795385029767775,0.7684275778877548,-0.2615765913870643
0.43795385029767775,0.7684275778877548,-0.47385748928219235
0.43795385029767775,0.7684275778877548,0.01514226394283648
0.43795385029767775,-0.47385748928219235,0.4436779769811176
0.43795385029767775,-0.47385748928219235,-0.2615765913870643
0.43795385029767775,-0.47385748928219235,0.01514226394283648
0.43795385029767775,0.01514226394283648,0.4436779769811176
0.43795385029767775,0.01514226394283648,-0.2615765913870643
0.7684275778877548,0.4436779769811176,-0.2615765913870643
0.7684275778877548,-0.47385748928219235,0.4436779769811176
0.7684275778877548,-0.47385748928219235,-0.2615765913870643
0.7684275778877548,-0.47385748928219235,0.01514226394283648
0.7684275778877548,0.01514226394283648,0.4436779769811176
0.7684275778877548,0.01514226394283648,-0.2615765913870643
-0.47385748928219235,0.4436779769811176,-0.2615765913870643
-0.47385748928219235,0.01514226394283648,0.4436779769811176
-0.47385748928219235,0.01514226394283648,-0.2615765913870643
0.01514226394283648,0.4436779769811176,-0.2615765913870643
