0,1,2
0.9945599229203729,0.6682977299778603,1.5959369951487112
0.9945599229203729,0.6682977299778603,0.15096831686645243
0.9945599229203729,0.6682977299778603,-1.2477528874798032
0.9945599229203729,0.6682977299778603,0.7286740072494153
0.9945599229203729,0.6682977299778603,0.19526846531168726
0.9945599229203729,0.6682977299778603,2.486247332473481
0.9945599229203729,0.6682977299778603,0.1588108463244582
0.9945599229203729,0.6682977299778603,0.9589495924159102
0.9945599229203729,1.5959369951487112,0.15096831686645243
0.9945599229203729,1.5959369951487112,-1.2477528874798032
0.9945599229203729,1.5959369951487112,0.7286740072494153
0.9945599229203729,1.5959369951487112,0.19526846531168726
0.9945599229203729,1.5959369951487112,2.486247332473481
0.9945599229203729,1.5959369951487112,0.1588108463244582
0.9945599229203729,1.5959369951487112,0.9589495924159102
0.9945599229203729,0.15096831686645243,-1.2477528874798032
0.9945599229203729,0.15096831686645243,0.7286740072494153
0.9945599229203729,0.15096831686645243,0.19526846531168726
0.9945599229203729,0.15096831686645243,2.486247332473481
0.9945599229203729,0.15096831686645243,0.1588108463244582
0.9945599229203729,0.15096831686645243,0.9589495924159102
0.9945599229203729,-1.2477528874798032,0.1588108463244582
0.9945599229203729,-1.2477528874798032,0.9589495924159102
0.9945599229203729,-1.2477528874798032,0.7286740072494153
0.9945599229203729,-1.2477528874798032,0.19526846531168726
0.9945599229203729,-1.2477528874798032,2.486247332473481
0.9945599229203729,0.7286740072494153,0.1588108463244582
0.9945599229203729,0.7286740072494153,0.9589495924159102
0.9945599229203729,0.7286740072494153,0.19526846531168726
0.9945599229203729,0.7286740072494153,2.486247332473481
0.9945599229203729,0.19526846531168726,0.1588108463244582
0.9945599229203729,0.19526846531168726,0.9589495924159102
0.9945599229203729,0.19526846531168726,2.486247332473481
0.9945599229203729,2.486247332473481,0.1588108463244582
0.9945599229203729,2.486247332473481,0.9589495924159102
0.9945599229203729,0.1588108463244582,0.9589495924159102
0.6682977299778603,1.5959369951487112,0.15096831686645243
0.6682977299778603,1.5959369951487112,-1.2477528874798032
0.6682977299778603,1.5959369951487112,0.7286740072494153
0.6682977299778603,1.5959369951487112,0.19526846531168726
0.6682977299778603,1.5959369951487112,2.486247332473481
0.6682977299778603,1.5959369951487112,0.1588108463244582
0.6682977299778603,1.5959369951487112,0.9589495924159102
0.6682977299778603,0.15096831686645243,-1.2477528874798032
0.6682977299778603,0.15096831686645243,0.7286740072494153
0.6682977299778603,0.15096831686645243,0.19526846531168726
0.6682977299778603,0.15096831686645243,2.486247332473481
0.6682977299778603,0.15096831686645243,0.1588108463244582
0.6682977299778603,0.15096831686645243,0.9589495924159102
0.6682977299778603,-1.2477528874798032,0.1588108463244582
0.6682977299778603,-1.2477528874798032,0.9589495924159102
0.6682977299778603,-1.2477528874798032,0.7286740072494153
0.6682977299778603,-1.2477528874798032,0.19526846531168726
0.6682977299778603,-1.2477528874798032,2.486247332473481
0.6682977299778603,0.7286740072494153,0.1588108463244582
0.6682977299778603,0.7286740072494153,0.9589495924159102
0.6682977299778603,0.7286740072494153,0.19526846531168726
0.6682977299778603,0.7286740072494153,2.486247332473481
0.6682977299778603,0.19526846531168726,0.1588108463244582
0.6682977299778603,0.19526846531168726,0.9589495924159102
0.6682977299778603,0.19526846531168726,2.486247332473481
0.6682977299778603,2.486247332473481,0.1588108463244582
0.6682977299778603,2.486247332473481,0.9589495924159102
0.6682977299778603,0.1588108463244582,0.9589495924159102
1.5959369951487112,0.15096831686645243,-1.2477528874798032
1.5959369951487112,0.15096831686645243,0.7286740072494153
1.5959369951487112,0.15096831686645243,0.19526846531168726
1.5959369951487112,0.15096831686645243,2.486247332473481
1.5959369951487112,0.15096831686645243,0.1588108463244582
1.5959369951487112,0.15096831686645243,0.9589495924159102
1.5959369951487112,-1.2477528874798032,0.1588108463244582
1.5959369951487112,-1.2477528874798032,0.9589495924159102
1.5959369951487112,-1.2477528874798032,0.7286740072494153
1.5959369951487112,-1.2477528874798032,0.19526846531168726
1.5959369951487112,-1.2477528874798032,2.486247332473481
1.5959369951487112,0.7286740072494153,0.1588108463244582
1.5959369951487112,0.7286740072494153,0.9589495924159102
1.5959369951487112,0.7286740072494153,0.19526846531168726
1.5959369951487112,0.7286740072494153,2.486247332473481
1.5959369951487112,0.19526846531168726,0.1588108463244582
1.5959369951487112,0.19526846531168726,0.9589495924159102
1.5959369951487112,0.19526846531168726,2.486247332473481
1.5959369951487112,2.486247332473481,0.1588108463244582
1.5959369951487112,2.486247332473481,0.9589495924159102
1.5959369951487112,0.1588108463244582,0.9589495924159102
0.15096831686645243,-1.2477528874798032,0.1588108463244582
0.15096831686645243,-1.2477528874798032,0.9589495924159102
0.15096831686645243,-1.2477528874798032,0.7286740072494153
0.15096831686645243,-1.2477528874798032,0.19526846531168726
0.15096831686645243,-1.2477528874798032,2.486247332473481
0.15096831686645243,0.7286740072494153,0.1588108463244582
0.15096831686645243,0.7286740072494153,0.9589495924159102
0.15096831686645243,0.7286740072494153,0.19526846531168726
0.15096831686645243,0.7286740072494153,2.486247332473481
0.15096831686645243,0.19526846531168726,0.1588108463244582
0.15096831686645243,0.19526846531168726,0.9589495924159102
0.15096831686645243,0.19526846531168726,2.486247332473481
0.15096831686645243,2.486247332473481,0.1588108463244582
0.15096831686645243,2.486247332473481,0.9589495924159102
0.15096831686645243,0.1588108463244582,0.9589495924159102
-1.2477528874798032,0.1588108463244582,0.9589495924159102
-1.2477528874798032,0.7286740072494153,0.1588108463244582
-1.2477528874798032,0.7286740072494153,0.9589495924159102
-1.2477528874798032,0.7286740072494153,0.19526846531168726
-1.2477528874798032,0.7286740072494153,2.486247332473481
-1.2477528874798032,0.19526846531168726,0.1588108463244582
-1.2477528874798032,0.19526846531168726,0.9589495924159102
-1.2477528874798032,0.19526846531168726,2.486247332473481
-1.2477528874798032,2.486247332473481,0.1588108463244582
-1.2477528874798032,2.486247332473481,0.9589495924159102
0.7286740072494153,0.1588108463244582,0.9589495924159102
0.7286740072494153,0.19526846531168726,0.1588108463244582
0.7286740072494153,0.19526846531168726,0.9589495924159102
0.7286740072494153,0.19526846531168726,2.486247332473481
0.7286740072494153,2.486247332473481,0.1588108463244582
0.7286740072494153,2.486247332473481,0.9589495924159102
0.19526846531168726,0.1588108463244582,0.9589495924159102
0.19526846531168726,2.486247332473481,0.1588108463244582
0.19526846531168726,2.486247332473481,0.9589495924159102
2.486247332473481,0.1588108463244582,0.9589495924159102
