0,1,2
-1.2328447977866233,-0.4838990574705195,-1.6168260915657626
-1.2328447977866233,-0.4838990574705195,-1.055460040332759
-1.2328447977866233,-0.4838990574705195,-0.5256717347507908
-1.2328447977866233,-0.4838990574705195,-0.27113580860372033
-1.2328447977866233,-0.4838990574705195,1.034393705986932
-1.2328447977866233,-0.4838990574705195,-0.7937611712887284
-1.2328447977866233,-0.4838990574705195,1.1471611982092502
-1.2328447977866233,-0.4838990574705195,-1.3358251123744098
-1.2328447977866233,-1.6168260915657626,-1.055460040332759
-1.2328447977866233,-1.6168260915657626,-0.5256717347507908
-1.2328447977866233,-1.6168260915657626,-0.27113580860372033
-1.2328447977866233,-1.6168260915657626,1.034393705986932
-1.2328447977866233,-1.6168260915657626,-0.7937611712887284
-1.2328447977866233,-1.6168260915657626,1.1471611982092502
-1.2328447977866233,-1.6168260915657626,-1.3358251123744098
-1.2328447977866233,-1.055460040332759,-0.5256717347507908
-1.2328447977866233,-1.055460040332759,-0.27113580860372033
-1.2328447977866233,-1.055460040332759,1.034393705986932
-1.2328447977866233,-1.055460040332759,-0.7937611712887284
-1.2328447977866233,-1.055460040332759,1.1471611982092502
-1.2328447977866233,-1.055460040332759,-1.3358251123744098
-1.2328447977866233,-0.5256717347507908,1.1471611982092502
-1.2328447977866233,-0.5256717347507908,-1.3358251123744098
-1.2328447977866233,-0.5256717347507908,-0.27113580860372033
-1.2328447977866233,-0.5256717347507908,1.034393705986932
-1.2328447977866233,-0.5256717347507908,-0.7937611712887284
-1.2328447977866233,-0.27113580860372033,1.1471611982092502
-1.2328447977866233,-0.27113580860372033,-1.3358251123744098
-1.2328447977866233,-0.27113580860372033,1.034393705986932
-1.2328447977866233,-0.27113580860372033,-0.7937611712887284
-1.2328447977866233,1.034393705986932,1.1471611982092502
-1.2328447977866233,1.034393705986932,-1.3358251123744098
-1.2328447977866233,1.034393705986932,-0.7937611712887284
-1.2328447977866233,-0.7937611712887284,1.1471611982092502
-1.2328447977866233,-0.7937611712887284,-1.3358251123744098
-1.2328447977866233,1.1471611982092502,-1.3358251123744098
-0.4838990574705195,-1.6168260915657626,-1.055460040332759
-0.4838990574705195,-1.6168260915657626,-0.5256717347507908
-0.4838990574705195,-1.6168260915657626,-0.27113580860372033
-0.4838990574705195,-1.6168260915657626,1.034393705986932
-0.4838990574705195,-1.6168260915657626,-0.7937611712887284
-0.4838990574705195,-1.6168260915657626,1.1471611982092502
-0.4838990574705195,-1.6168260915657626,-1.3358251123744098
-0.4838990574705195,-1.055460040332759,-0.5256717347507908
-0.4838990574705195,-1.055460040332759,-0.27113580860372033
-0.4838990574705195,-1.055460040332759,1.034393705986932
-0.4838990574705195,-1.055460040332759,-0.7937611712887284
-0.4838990574705195,-1.055460040332759,1.1471611982092502
-0.4838990574705195,-1.055460040332759,-1.3358251123744098
-0.4838990574705195,-0.5256717347507908,1.1471611982092502
-0.4838990574705195,-0.5256717347507908,-1.3358251123744098
-0.4838990574705195,-0.5256717347507908,-0.27113580860372033
-0.4838990574705195,-0.5256717347507908,1.034393705986932
-0.4838990574705195,-0.5256717347507908,-0.7937611712887284
-0.4838990574705195,-0.27113580860372033,1.1471611982092502
-0.4838990574705195,-0.27113580860372033,-1.3358251123744098
-0.4838990574705195,-0.27113580860372033,1.034393705986932
-0.4838990574705195,-0.27113580860372033,-0.7937611712887284
-0.4838990574705195,1.034393705986932,1.1471611982092502
-0.4838990574705195,1.034393705986932,-1.3358251123744098
-0.4838990574705195,1.034393705986932,-0.7937611712887284
-0.4838990574705195,-0.7937611712887284,1.1471611982092502
-0.4838990574705195,-0.7937611712887284,-1.3358251123744098
-0.4838990574705195,1.1471611982092502,-1.3358251123744098
-1.6168260915657626,-1.055460040332759,-0.5256717347507908
-1.6168260915657626,-1.055460040332759,-0.27113580860372033
-1.6168260915657626,-1.055460040332759,1.034393705986932
-1.6168260915657626,-1.055460040332759,-0.7937611712887284
-1.6168260915657626,-1.055460040332759,1.1471611982092502
-1.6168260915657626,-1.055460040332759,-1.3358251123744098
-1.6168260915657626,-0.5256717347507908,1.1471611982092502
-1.6168260915657626,-0.5256717347507908,-1.3358251123744098
-1.6168260915657626,-0.5256717347507908,-0.27113580860372033
-1.6168260915657626,-0.5256717347507908,1.034393705986932
-1.6168260915657626,-0.5256717347507908,-0.7937611712887284
-1.6168260915657626,-0.27113580860372033,1.1471611982092502
-1.6168260915657626,-0.27113580860372033,-1.3358251123744098
-1.6168260915657626,-0.27113580860372033,1.034393705986932
-1.6168260915657626,-0.27113580860372033,-0.7937611712887284
-1.6168260915657626,1.034393705986932,1.1471611982092502
-1.6168260915657626,1.034393705986932,-1.3358251123744098
-1.6168260915657626,1.034393705986932,-0.7937611712887284
-1.6168260915657626,-0.7937611712887284,1.1471611982092502
-1.6168260915657626,-0.7937611712887284,-1.3358251123744098
-1.6168260915657626,1.1471611982092502,-1.3358251123744098
-1.055460040332759,-0.5256717347507908,1.1471611982092502
-1.055460040332759,-0.5256717347507908,-1.3358251123744098
-1.055460040332759,-0.5256717347507908,-0.27113580860372033
-1.055460040332759,-0.5256717347507908,1.034393705986932
-1.055460040332759,-0.5256717347507908,-0.7937611712887284
-1.055460040332759,-0.27113580860372033,1.1471611982092502
-1.055460040332759,-0.27113580860372033,-1.3358251123744098
-1.055460040332759,-0.27113580860372033,1.034393705986932
-1.055460040332759,-0.27113580860372033,-0.7937611712887284
-1.055460040332759,1.034393705986932,1.1471611982092502
-1.055460040332759,1.034393705986932,-1.3358251123744098
-1.055460040332759,1.034393705986932,-0.7937611712887284
-1.055460040332759,-0.7937611712887284,1.1471611982092502
-1.055460040332759,-0.7937611712887284,-1.3358251123744098
-1.055460040332759,1.1471611982092502,-1.3358251123744098
-0.5256717347507908,1.1471611982092502,-1.3358251123744098
-0.5256717347507908,-0.27113580860372033,1.1471611982092502
-0.5256717347507908,-0.27113580860372033,-1.3358251123744098
-0.5256717347507908,-0.27113580860372033,1.034393705986932
-0.5256717347507908,-0.27113580860372033,-0.7937611712887284
-0.5256717347507908,1.034393705986932,1.1471611982092502
-0.5256717347507908,1.034393705986932,-1.3358251123744098
-0.5256717347507908,1.034393705986932,-0.7937611712887284
-0.5256717347507908,-0.7937611712887284,1.1471611982092502
-0.5256717347507908,-0.7937611712887284,-1.3358251123744098
-0.27113580860372033,1.1471611982092502,-1.3358251123744098
-0.27113580860372033,1.034393705986932,1.1471611982092502
-0.27113580860372033,1.034393705986932,-1.3358251123744098
-0.27113580860372033,1.034393705986932,-0.7937611712887284
-0.27113580860372033,-0.7937611712887284,1.1471611982092502
-0.27113580860372033,-0.7937611712887284,-1.3358251123744098
1.034393705986932,1.1471611982092502,-1.3358251123744098
1.034393705986932,-0.7937611712887284,1.1471611982092502
1.034393705986932,-0.7937611712887284,-1.3358251123744098
-0.7937611712887284,1.1471611982092502,-1.3358251123744098
