0,1,2
0.2973236810321617,-0.3931502078600715,-0.22325596085150254
0.2973236810321617,-0.3931502078600715,0.05909212328680829
0.2973236810321617,-0.3931502078600715,-1.3465831403482953
0.2973236810321617,-0.3931502078600715,-0.2622548683330038
0.2973236810321617,-0.3931502078600715,-0.6941637366166215
0.2973236810321617,-0.3931502078600715,0.4994961260313501
0.2973236810321617,-0.3931502078600715,-0.7419898031511405
0.2973236810321617,-0.3931502078600715,1.0965212877696817
0.2973236810321617,-0.22325596085150254,0.05909212328680829
0.2973236810321617,-0.22325596085150254,-1.3465831403482953
0.2973236810321617,-0.22325596085150254,-0.2622548683330038
0.2973236810321617,-0.22325596085150254,-0.6941637366166215
0.2973236810321617,-0.22325596085150254,0.4994961260313501
0.2973236810321617,-0.22325596085150254,-0.7419898031511405
0.2973236810321617,-0.22325596085150254,1.0965212877696817
0.2973236810321617,0.05909212328680829,-1.3465831403482953
0.2973236810321617,0.05909212328680829,-0.2622548683330038
0.2973236810321617,0.05909212328680829,-0.6941637366166215
0.2973236810321617,0.05909212328680829,0.4994961260313501
0.2973236810321617,0.05909212328680829,-0.7419898031511405
0.2973236810321617,0.05909212328680829,1.0965212877696817
0.2973236810321617,-1.3465831403482953,-0.7419898031511405
0.2973236810321617,-1.3465831403482953,1.0965212877696817
0.2973236810321617,-1.3465831403482953,-0.2622548683330038
0.2973236810321617,-1.3465831403482953,-0.6941637366166215
0.2973236810321617,-1.3465831403482953,0.4994961260313501
0.2973236810321617,-0.2622548683330038,-0.7419898031511405
0.2973236810321617,-0.2622548683330038,1.0965212877696817
0.2973236810321617,-0.2622548683330038,-0.6941637366166215
0.2973236810321617,-0.2622548683330038,0.4994961260313501
0.2973236810321617,-0.6941637366166215,-0.7419898031511405
0.2973236810321617,-0.6941637366166215,1.0965212877696817
0.2973236810321617,-0.6941637366166215,0.4994961260313501
0.2973236810321617,0.4994961260313501,-0.7419898031511405
0.2973236810321617,0.4994961260313501,1.0965212877696817
0.2973236810321617,-0.7419898031511405,1.0965212877696817
-0.3931502078600715,-0.22325596085150254,0.05909212328680829
-0.3931502078600715,-0.22325596085150254,-1.3465831403482953
-0.3931502078600715,-0.22325596085150254,-0.2622548683330038
-0.3931502078600715,-0.22325596085150254,-0.6941637366166215
-0.3931502078600715,-0.22325596085150254,0.4994961260313501
-0.3931502078600715,-0.22325596085150254,-0.7419898031511405
-0.3931502078600715,-0.22325596085150254,1.0965212877696817
-0.3931502078600715,0.05909212328680829,-1.3465831403482953
-0.3931502078600715,0.05909212328680829,-0.2622548683330038
-0.3931502078600715,0.05909212328680829,-0.6941637366166215
-0.3931502078600715,0.05909212328680829,0.4994961260313501
-0.3931502078600715,0.05909212328680829,-0.7419898031511405
-0.3931502078600715,0.05909212328680829,1.0965212877696817
-0.3931502078600715,-1.3465831403482953,-0.7419898031511405
-0.3931502078600715,-1.3465831403482953,1.0965212877696817
-0.3931502078600715,-1.3465831403482953,-0.2622548683330038
-0.3931502078600715,-1.3465831403482953,-0.6941637366166215
-0.3931502078600715,-1.3465831403482953,0.4994961260313501
-0.3931502078600715,-0.2622548683330038,-0.7419898031511405
-0.3931502078600715,-0.2622548683330038,1.0965212877696817
-0.3931502078600715,-0.2622548683330038,-0.6941637366166215
-0.3931502078600715,-0.2622548683330038,0.4994961260313501
-0.3931502078600715,-0.6941637366166215,-0.7419898031511405
-0.3931502078600715,-0.6941637366166215,1.0965212877696817
-0.3931502078600715,-0.6941637366166215,0.4994961260313501
-0.3931502078600715,0.4994961260313501,-0.7419898031511405
-0.3931502078600715,0.4994961260313501,1.0965212877696817
-0.3931502078600715,-0.7419898031511405,1.0965212877696817
-0.22325596085150254,0.05909212328680829,-1.3465831403482953
-0.22325596085150254,0.05909212328680829,-0.2622548683330038
-0.22325596085150254,0.05909212328680829,-0.6941637366166215
-0.22325596085150254,0.05909212328680829,0.4994961260313501
-0.22325596085150254,0.05909212328680829,-0.7419898031511405
-0.22325596085150254,0.05909212328680829,1.0965212877696817
-0.22325596085150254,-1.3465831403482953,-0.7419898031511405
-0.22325596085150254,-1.3465831403482953,1.0965212877696817
-0.22325596085150254,-1.3465831403482953,-0.2622548683330038
-0.22325596085150254,-1.3465831403482953,-0.6941637366166215
-0.22325596085150254,-1.3465831403482953,0.4994961260313501
-0.22325596085150254,-0.2622548683330038,-0.7419898031511405
-0.22325596085150254,-0.2622548683330038,1.0965212877696817
-0.22325596085150254,-0.2622548683330038,-0.6941637366166215
-0.22325596085150254,-0.2622548683330038,0.4994961260313501
-0.22325596085150254,-0.6941637366166215,-0.7419898031511405
-0.22325596085150254,-0.6941637366166215,1.0965212877696817
-0.22325596085150254,-0.6941637366166215,0.4994961260313501
-0.22325596085150254,0.4994961260313501,-0.7419898031511405
-0.22325596085150254,0.4994961260313501,1.0965212877696817
-0.22325596085150254,-0.7419898031511405,1.0965212877696817
0.05909212328680829,-1.3465831403482953,-0.7419898031511405
0.05909212328680829,-1.3465831403482953,1.0965212877696817
0.05909212328680829,-1.3465831403482953,-0.2622548683330038
0.05909212328680829,-1.3465831403482953,-0.6941637366166215
0.05909212328680829,-1.3465831403482953,0.4994961260313501
0.05909212328680829,-0.2622548683330038,-0.7419898031511405
0.05909212328680829,-0.2622548683330038,1.0965212877696817
0.05909212328680829,-0.2622548683330038,-0.6941637366166215
0.05909212328680829,-0.2622548683330038,0.4994961260313501
0.05909212328680829,-0.6941637366166215,-0.7419898031511405
0.05909212328680829,-0.6941637366166215,1.0965212877696817
0.05909212328680829,-0.6941637366166215,0.4994961260313501
0.05909212328680829,0.4994961260313501,-0.7419898031511405
0.05909212328680829,0.4994961260313501,1.0965212877696817
0.05909212328680829,-0.7419898031511405,1.0965212877696817
-1.3465831403482953,-0.7419898031511405,1.0965212877696817
-1.3465831403482953,-0.2622548683330038,-0.7419898031511405
-1.3465831403482953,-0.2622548683330038,1.0965212877696817
-1.3465831403482953,-0.2622548683330038,-0.6941637366166215
-1.3465831403482953,-0.2622548683330038,0.4994961260313501
-1.3465831403482953,-0.6941637366166215,-0.7419898031511405
-1.3465831403482953,-0.6941637366166215,1.0965212877696817
-1.3465831403482953,-0.6941637366166215,0.4994961260313501
-1.3465831403482953,0.4994961260313501,-0.7419898031511405
-1.3465831403482953,0.4994961260313501,1.0965212877696817
-0.2622548683330038,-0.7419898031511405,1.0965212877696817
-0.2622548683330038,-0.6941637366166215,-0.7419898031511405
-0.2622548683330038,-0.6941637366166215,1.0965212877696817
-0.2622548683330038,-0.6941637366166215,0.4994961260313501
-0.2622548683330038,0.4994961260313501,-0.7419898031511405
-0.2622548683330038,0.4994961260313501,1.0965212877696817
-0.6941637366166215,-0.7419898031511405,1.0965212877696817
-0.6941637366166215,0.4994961260313501,-0.7419898031511405
-0.6941637366166215,0.4994961260313501,1.0965212877696817
0.4994961260313501,-0.7419898031511405,1.0965212877696817
