0,1,2
-0.6830710585756645,-0.9277737993690759,1.1792790689166963
-0.6830710585756645,-0.9277737993690759,-0.7912860098910618
-0.6830710585756645,-0.9277737993690759,0.6729092168717014
-0.6830710585756645,-0.9277737993690759,0.3310679038033682
-0.6830710585756645,-0.9277737993690759,0.015286396575937822
-0.6830710585756645,-0.9277737993690759,-1.223739364116307
-0.6830710585756645,-0.9277737993690759,-3.6746235196709724
-0.6830710585756645,-0.9277737993690759,0.5242388203989515
-0.6830710585756645,1.1792790689166963,-0.7912860098910618
-0.6830710585756645,1.1792790689166963,0.6729092168717014
-0.6830710585756645,1.1792790689166963,0.3310679038033682
-0.6830710585756645,1.1792790689166963,0.015286396575937822
-0.6830710585756645,1.1792790689166963,-1.223739364116307
-0.6830710585756645,1.1792790689166963,-3.6746235196709724
-0.6830710585756645,1.1792790689166963,0.5242388203989515
-0.6830710585756645,-0.7912860098910618,0.6729092168717014
-0.6830710585756645,-0.7912860098910618,0.3310679038033682
-0.6830710585756645,-0.7912860098910618,0.015286396575937822
-0.6830710585756645,-0.7912860098910618,-1.223739364116307
-0.6830710585756645,-0.7912860098910618,-3.6746235196709724
-0.6830710585756645,-0.7912860098910618,0.5242388203989515
-0.6830710585756645,0.6729092168717014,-3.6746235196709724
-0.6830710585756645,0.6729092168717014,0.5242388203989515
-0.6830710585756645,0.6729092168717014,0.3310679038033682
-0.6830710585756645,0.6729092168717014,0.015286396575937822
-0.6830710585756645,0.6729092168717014,-1.223739364116307
-0.6830710585756645,0.3310679038033682,-3.6746235196709724
-0.6830710585756645,0.3310679038033682,0.5242388203989515
-0.6830710585756645,0.3310679038033682,0.015286396575937822
-0.6830710585756645,0.3310679038033682,-1.223739364116307
-0.6830710585756645,0.015286396575937822,-3.6746235196709724
-0.6830710585756645,0.015286396575937822,0.5242388203989515
-0.6830710585756645,0.015286396575937822,-1.223739364116307
-0.6830710585756645,-1.223739364116307,-3.6746235196709724
-0.6830710585756645,-1.223739364116307,0.5242388203989515
-0.6830710585756645,-3.6746235196709724,0.5242388203989515
-0.9277737993690759,1.1792790689166963,-0.7912860098910618
-0.9277737993690759,1.1792790689166963,0.6729092168717014
-0.9277737993690759,1.1792790689166963,0.3310679038033682
-0.9277737993690759,1.1792790689166963,0.015286396575937822
-0.9277737993690759,1.1792790689166963,-1.223739364116307
-0.9277737993690759,1.1792790689166963,-3.6746235196709724
-0.9277737993690759,1.1792790689166963,0.5242388203989515
-0.9277737993690759,-0.7912860098910618,0.6729092168717014
-0.9277737993690759,-0.7912860098910618,0.3310679038033682
-0.9277737993690759,-0.7912860098910618,0.015286396575937822
-0.9277737993690759,-0.7912860098910618,-1.223739364116307
-0.9277737993690759,-0.7912860098910618,-3.6746235196709724
-0.9277737993690759,-0.7912860098910618,0.5242388203989515
-0.9277737993690759,0.6729092168717014,-3.6746235196709724
-0.9277737993690759,0.6729092168717014,0.5242388203989515
-0.9277737993690759,0.6729092168717014,0.3310679038033682
-0.9277737993690759,0.6729092168717014,0.015286396575937822
-0.9277737993690759,0.6729092168717014,-1.223739364116307
-0.9277737993690759,0.3310679038033682,-3.6746235196709724
-0.9277737993690759,0.3310679038033682,0.5242388203989515
-0.9277737993690759,0.3310679038033682,0.015286396575937822
-0.9277737993690759,0.3310679038033682,-1.223739364116307
-0.9277737993690759,0.015286396575937822,-3.6746235196709724
-0.9277737993690759,0.015286396575937822,0.5242388203989515
-0.9277737993690759,0.015286396575937822,-1.223739364116307
-0.9277737993690759,-1.223739364116307,-3.6746235196709724
-0.9277737993690759,-1.223739364116307,0.5242388203989515
-0.9277737993690759,-3.6746235196709724,0.5242388203989515
1.1792790689166963,-0.7912860098910618,0.6729092168717014
1.1792790689166963,-0.7912860098910618,0.3310679038033682
1.1792790689166963,-0.7912860098910618,0.015286396575937822
1.1792790689166963,-0.7912860098910618,-1.223739364116307
1.1792790689166963,-0.7912860098910618,-3.6746235196709724
1.1792790689166963,-0.7912860098910618,0.5242388203989515
1.1792790689166963,0.6729092168717014,-3.6746235196709724
1.1792790689166963,0.6729092168717014,0.5242388203989515
1.1792790689166963,0.6729092168717014,0.3310679038033682
1.1792790689166963,0.6729092168717014,0.015286396575937822
1.1792790689166963,0.6729092168717014,-1.223739364116307
1.1792790689166963,0.3310679038033682,-3.6746235196709724
1.1792790689166963,0.3310679038033682,0.5242388203989515
1.1792790689166963,0.3310679038033682,0.015286396575937822
1.1792790689166963,0.3310679038033682,-1.223739364116307
1.1792790689166963,0.015286396575937822,-3.6746235196709724
1.1792790689166963,0.015286396575937822,0.5242388203989515
1.1792790689166963,0.015286396575937822,-1.223739364116307
1.1792790689166963,-1.223739364116307,-3.6746235196709724
1.1792790689166963,-1.223739364116307,0.5242388203989515
1.1792790689166963,-3.6746235196709724,0.5242388203989515
-0.7912860098910618,0.6729092168717014,-3.6746235196709724
-0.7912860098910618,0.6729092168717014,0.5242388203989515
-0.7912860098910618,0.6729092168717014,0.3310679038033682
-0.7912860098910618,0.6729092168717014,0.015286396575937822
-0.7912860098910618,0.6729092168717014,-1.223739364116307
-0.7912860098910618,0.3310679038033682,-3.6746235196709724
-0.7912860098910618,0.3310679038033682,0.5242388203989515
-0.7912860098910618,0.3310679038033682,0.015286396575937822
-0.7912860098910618,0.3310679038033682,-1.223739364116307
-0.7912860098910618,0.015286396575937822,-3.6746235196709724
-0.7912860098910618,0.015286396575937822,0.5242388203989515
-0.7912860098910618,0.015286396575937822,-1.223739364116307
-0.7912860098910618,-1.223739364116307,-3.6746235196709724
-0.7912860098910618,-1.223739364116307,0.5242388203989515
-0.7912860098910618,-3.6746235196709724,0.5242388203989515
0.6729092168717014,-3.6746235196709724,0.5242388203989515
0.6729092168717014,0.3310679038033682,-3.6746235196709724
0.6729092168717014,0.3310679038033682,0.5242388203989515
0.6729092168717014,0.3310679038033682,0.015286396575937822
0.6729092168717014,0.3310679038033682,-1.223739364116307
0.6729092168717014,0.015286396575937822,-3.6746235196709724
0.6729092168717014,0.015286396575937822,0.5242388203989515
0.6729092168717014,0.015286396575937822,-1.223739364116307
0.6729092168717014,-1.223739364116307,-3.6746235196709724
0.6729092168717014,-1.223739364116307,0.5242388203989515
0.3310679038033682,-3.6746235196709724,0.5242388203989515
0.3310679038033682,0.015286396575937822,-3.6746235196709724
0.3310679038033682,0.015286396575937822,0.5242388203989515
0.3310679038033682,0.015286396575937822,-1.223739364116307
0.3310679038033682,-1.223739364116307,-3.6746235196709724
0.3310679038033682,-1.223739364116307,0.5242388203989515
0.015286396575937822,-3.6746235196709724,0.5242388203989515
0.015286396575937822,-1.223739364116307,-3.6746235196709724
0.015286396575937822,-1.223739364116307,0.5242388203989515
-1.223739364116307,-3.6746235196709724,0.5242388203989515
