0,1,2
-0.6355269947701098,-0.4131931652757347,0.13149281132119575
-0.6355269947701098,-0.4131931652757347,-0.8669872557713223
-0.6355269947701098,-0.4131931652757347,0.5790840460003157
-0.6355269947701098,-0.4131931652757347,-2.2152006862967606
-0.6355269947701098,-0.4131931652757347,-1.3150432124263962
-0.6355269947701098,-0.4131931652757347,-1.1224748375397888
-0.6355269947701098,-0.4131931652757347,-0.2138613239340555
-0.6355269947701098,-0.4131931652757347,1.0147171721303005
-0.6355269947701098,0.13149281132119575,-0.8669872557713223
-0.6355269947701098,0.13149281132119575,0.5790840460003157
-0.6355269947701098,0.13149281132119575,-2.2152006862967606
-0.6355269947701098,0.13149281132119575,-1.3150432124263962
-0.6355269947701098,0.13149281132119575,-1.1224748375397888
-0.6355269947701098,0.13149281132119575,-0.2138613239340555
-0.6355269947701098,0.13149281132119575,1.0147171721303005
-0.6355269947701098,-0.8669872557713223,0.5790840460003157
-0.6355269947701098,-0.8669872557713223,-2.2152006862967606
-0.6355269947701098,-0.8669872557713223,-1.3150432124263962
-0.6355269947701098,-0.8669872557713223,-1.1224748375397888
-0.6355269947701098,-0.8669872557713223,-0.2138613239340555
-0.6355269947701098,-0.8669872557713223,1.0147171721303005
-0.6355269947701098,0.5790840460003157,-0.2138613239340555
-0.6355269947701098,0.5790840460003157,1.0147171721303005
-0.6355269947701098,0.5790840460003157,-2.2152006862967606
-0.6355269947701098,0.5790840460003157,-1.3150432124263962
-0.6355269947701098,0.5790840460003157,-1.1224748375397888
-0.6355269947701098,-2.2152006862967606,-0.2138613239340555
-0.6355269947701098,-2.2152006862967606,1.0147171721303005
-0.6355269947701098,-2.2152006862967606,-1.3150432124263962
-0.6355269947701098,-2.2152006862967606,-1.1224748375397888
-0.6355269947701098,-1.3150432124263962,-0.2138613239340555
-0.6355269947701098,-1.3150432124263962,1.0147171721303005
-0.6355269947701098,-1.3150432124263962,-1.1224748375397888
-0.6355269947701098,-1.1224748375397888,-0.2138613239340555
-0.6355269947701098,-1.1224748375397888,1.0147171721303005
-0.6355269947701098,-0.2138613239340555,1.0147171721303005
-0.4131931652757347,0.13149281132119575,-0.8669872557713223
-0.4131931652757347,0.13149281132119575,0.5790840460003157
-0.4131931652757347,0.13149281132119575,-2.2152006862967606
-0.4131931652757347,0.13149281132119575,-1.3150432124263962
-0.4131931652757347,0.13149281132119575,-1.1224748375397888
-0.4131931652757347,0.13149281132119575,-0.2138613239340555
-0.4131931652757347,0.13149281132119575,1.0147171721303005
-0.4131931652757347,-0.8669872557713223,0.5790840460003157
-0.4131931652757347,-0.8669872557713223,-2.2152006862967606
-0.4131931652757347,-0.8669872557713223,-1.3150432124263962
-0.4131931652757347,-0.8669872557713223,-1.1224748375397888
-0.4131931652757347,-0.8669872557713223,-0.2138613239340555
-0.4131931652757347,-0.8669872557713223,1.0147171721303005
-0.4131931652757347,0.5790840460003157,-0.2138613239340555
-0.4131931652757347,0.5790840460003157,1.0147171721303005
-0.4131931652757347,0.5790840460003157,-2.2152006862967606
-0.4131931652757347,0.5790840460003157,-1.3150432124263962
-0.4131931652757347,0.5790840460003157,-1.1224748375397888
-0.4131931652757347,-2.2152006862967606,-0.2138613239340555
-0.4131931652757347,-2.2152006862967606,1.0147171721303005
-0.4131931652757347,-2.2152006862967606,-1.3150432124263962
-0.4131931652757347,-2.2152006862967606,-1.1224748375397888
-0.4131931652757347,-1.3150432124263962,-0.2138613239340555
-0.4131931652757347,-1.3150432124263962,1.0147171721303005
-0.4131931652757347,-1.3150432124263962,-1.1224748375397888
-0.4131931652757347,-1.1224748375397888,-0.2138613239340555
-0.4131931652757347,-1.1224748375397888,1.0147171721303005
-0.4131931652757347,-0.2138613239340555,1.0147171721303005
0.13149281132119575,-0.8669872557713223,0.5790840460003157
0.13149281132119575,-0.8669872557713223,-2.2152006862967606
0.13149281132119575,-0.8669872557713223,-1.3150432124263962
0.13149281132119575,-0.8669872557713223,-1.1224748375397888
0.13149281132119575,-0.8669872557713223,-0.2138613239340555
0.13149281132119575,-0.8669872557713223,1.0147171721303005
0.13149281132119575,0.5790840460003157,-0.2138613239340555
0.13149281132119575,0.5790840460003157,1.0147171721303005
0.13149281132119575,0.5790840460003157,-2.2152006862967606
0.13149281132119575,0.5790840460003157,-1.3150432124263962
0.13149281132119575,0.5790840460003157,-1.1224748375397888
0.13149281132119575,-2.2152006862967606,-0.2138613239340555
0.13149281132119575,-2.2152006862967606,1.0147171721303005
0.13149281132119575,-2.2152006862967606,-1.3150432124263962
0.13149281132119575,-2.2152006862967606,-1.1224748375397888
0.13149281132119575,-1.3150432124263962,-0.2138613239340555
0.13149281132119575,-1.3150432124263962,1.0147171721303005
0.13149281132119575,-1.3150432124263962,-1.1224748375397888
0.13149281132119575,-1.1224748375397888,-0.2138613239340555
0.13149281132119575,-1.1224748375397888,1.0147171721303005
0.13149281132119575,-0.2138613239340555,1.0147171721303005
-0.8669872557713223,0.5790840460003157,-0.2138613239340555
-0.8669872557713223,0.5790840460003157,1.0147171721303005
-0.8669872557713223,0.5790840460003157,-2.2152006862967606
-0.8669872557713223,0.5790840460003157,-1.3150432124263962
-0.8669872557713223,0.5790840460003157,-1.1224748375397888
-0.8669872557713223,-2.2152006862967606,-0.2138613239340555
-0.8669872557713223,-2.2152006862967606,1.0147171721303005
-0.8669872557713223,-2.2152006862967606,-1.3150432124263962
-0.8669872557713223,-2.2152006862967606,-1.1224748375397888
-0.8669872557713223,-1.3150432124263962,-0.2138613239340555
-0.8669872557713223,-1.3150432124263962,1.0147171721303005
-0.8669872557713223,-1.3150432124263962,-1.1224748375397888
-0.8669872557713223,-1.1224748375397888,-0.2138613239340555
-0.8669872557713223,-1.1224748375397888,1.0147171721303005
-0.8669872557713223,-0.2138613239340555,1.0147171721303005
0.5790840460003157,-0.2138613239340555,1.0147171721303005
0.5790840460003157,-2.2152006862967606,-0.2138613239340555
0.5790840460003157,-2.2152006862967606,1.0147171721303005
0.5790840460003157,-2.2152006862967606,-1.3150432124263962
0.5790840460003157,-2.2152006862967606,-1.1224748375397888
0.5790840460003157,-1.3150432124263962,-0.2138613239340555
0.5790840460003157,-1.3150432124263962,1.0147171721303005
0.5790840460003157,-1.3150432124263962,-1.1224748375397888
0.5790840460003157,-1.1224748375397888,-0.2138613239340555
0.5790840460003157,-1.1224748375397888,1.0147171721303005
-2.2152006862967606,-0.2138613239340555,1.0147171721303005
-2.2152006862967606,-1.3150432124263962,-0.2138613239340555
-2.2152006862967606,-1.3150432124263962,1.0147171721303005
-2.2152006862967606,-1.3150432124263962,-1.1224748375397888
-2.2152006862967606,-1.1224748375397888,-0.2138613239340555
-2.2152006862967606,-1.1224748375397888,1.0147171721303005
-1.3150432124263962,-0.2138613239340555,1.0147171721303005
-1.3150432124263962,-1.1224748375397888,-0.2138613239340555
-1.3150432124263962,-1.1224748375397888,1.0147171721303005
-1.1224748375397888,-0.2138613239340555,1.0147171721303005
