0,1,2
-0.08142082121461115,0.3730287462577127,0.8631271914076382
-0.08142082121461115,0.3730287462577127,-0.7953734313992348
-0.08142082121461115,0.3730287462577127,-0.6859797074662558
-0.08142082121461115,0.3730287462577127,-2.10116380040988
-0.08142082121461115,0.3730287462577127,-0.2793642061989101
-0.08142082121461115,0.3730287462577127,-1.755506168493652
-0.08142082121461115,0.3730287462577127,1.9934060680754377
-0.08142082121461115,0.3730287462577127,0.8785615085797864
-0.08142082121461115,0.8631271914076382,-0.7953734313992348
-0.08142082121461115,0.8631271914076382,-0.6859797074662558
-0.08142082121461115,0.8631271914076382,-2.10116380040988
-0.08142082121461115,0.8631271914076382,-0.2793642061989101
-0.08142082121461115,0.8631271914076382,-1.755506168493652
-0.08142082121461115,0.8631271914076382,1.9934060680754377
-0.08142082121461115,0.8631271914076382,0.8785615085797864
-0.08142082121461115,-0.7953734313992348,-0.6859797074662558
-0.08142082121461115,-0.7953734313992348,-2.10116380040988
-0.08142082121461115,-0.7953734313992348,-0.2793642061989101
-0.08142082121461115,-0.7953734313992348,-1.755506168493652
-0.08142082121461115,-0.7953734313992348,1.9934060680754377
-0.08142082121461115,-0.7953734313992348,0.8785615085797864
-0.08142082121461115,-0.6859797074662558,1.9934060680754377
-0.08142082121461115,-0.6859797074662558,0.8785615085797864
-0.08142082121461115,-0.6859797074662558,-2.10116380040988
-0.08142082121461115,-0.6859797074662558,-0.2793642061989101
-0.08142082121461115,-0.6859797074662558,-1.755506168493652
-0.08142082121461115,-2.10116380040988,1.9934060680754377
-0.08142082121461115,-2.10116380040988,0.8785615085797864
-0.08142082121461115,-2.10116380040988,-0.2793642061989101
-0.08142082121461115,-2.10116380040988,-1.755506168493652
-0.08142082121461115,-0.2793642061989101,1.9934060680754377
-0.08142082121461115,-0.2793642061989101,0.8785615085797864
-0.08142082121461115,-0.2793642061989101,-1.755506168493652
-0.08142082121461115,-1.755506168493652,1.9934060680754377
-0.08142082121461115,-1.755506168493652,0.8785615085797864
-0.08142082121461115,1.9934060680754377,0.8785615085797864
0.3730287462577127,0.8631271914076382,-0.7953734313992348
0.3730287462577127,0.8631271914076382,-0.6859797074662558
0.3730287462577127,0.8631271914076382,-2.10116380040988
0.3730287462577127,0.8631271914076382,-0.2793642061989101
0.3730287462577127,0.8631271914076382,-1.755506168493652
0.3730287462577127,0.8631271914076382,1.9934060680754377
0.3730287462577127,0.8631271914076382,0.8785615085797864
0.3730287462577127,-0.7953734313992348,-0.6859797074662558
0.3730287462577127,-0.7953734313992348,-2.10116380040988
0.3730287462577127,-0.7953734313992348,-0.2793642061989101
0.3730287462577127,-0.7953734313992348,-1.755506168493652
0.3730287462577127,-0.7953734313992348,1.9934060680754377
0.3730287462577127,-0.7953734313992348,0.8785615085797864
0.3730287462577127,-0.6859797074662558,1.9934060680754377
0.3730287462577127,-0.6859797074662558,0.8785615085797864
0.3730287462577127,-0.6859797074662558,-2.10116380040988
0.3730287462577127,-0.6859797074662558,-0.2793642061989101
0.3730287462577127,-0.6859797074662558,-1.755506168493652
0.3730287462577127,-2.10116380040988,1.9934060680754377
0.3730287462577127,-2.10116380040988,0.8785615085797864
0.3730287462577127,-2.10116380040988,-0.2793642061989101
0.3730287462577127,-2.10116380040988,-1.755506168493652
0.3730287462577127,-0.2793642061989101,1.9934060680754377
0.3730287462577127,-0.2793642061989101,0.8785615085797864
0.3730287462577127,-0.2793642061989101,-1.755506168493652
0.3730287462577127,-1.755506168493652,1.9934060680754377
0.3730287462577127,-1.755506168493652,0.8785615085797864
0.3730287462577127,1.9934060680754377,0.8785615085797864
0.8631271914076382,-0.7953734313992348,-0.6859797074662558
0.8631271914076382,-0.7953734313992348,-2.10116380040988
0.8631271914076382,-0.7953734313992348,-0.2793642061989101
0.8631271914076382,-0.7953734313992348,-1.755506168493652
0.8631271914076382,-0.7953734313992348,1.9934060680754377
0.8631271914076382,-0.7953734313992348,0.8785615085797864
0.8631271914076382,-0.6859797074662558,1.9934060680754377
0.8631271914076382,-0.6859797074662558,0.8785615085797864
0.8631271914076382,-0.6859797074662558,-2.10116380040988
0.8631271914076382,-0.6859797074662558,-0.2793642061989101
0.8631271914076382,-0.6859797074662558,-1.755506168493652
0.8631271914076382,-2.10116380040988,1.9934060680754377
0.8631271914076382,-2.10116380040988,0.8785615085797864
0.8631271914076382,-2.10116380040988,-0.2793642061989101
0.8631271914076382,-2.10116380040988,-1.755506168493652
0.8631271914076382,-0.2793642061989101,1.9934060680754377
0.8631271914076382,-0.2793642061989101,0.8785615085797864
0.8631271914076382,-0.2793642061989101,-1.755506168493652
0.8631271914076382,-1.755506168493652,1.9934060680754377
0.8631271914076382,-1.755506168493652,0.8785615085797864
0.8631271914076382,1.9934060680754377,0.8785615085797864
-0.7953734313992348,-0.6859797074662558,1.9934060680754377
-0.7953734313992348,-0.6859797074662558,0.8785615085797864
-0.7953734313992348,-0.6859797074662558,-2.10116380040988
-0.7953734313992348,-0.6859797074662558,-0.2793642061989101
-0.7953734313992348,-0.6859797074662558,-1.755506168493652
-0.7953734313992348,-2.10116380040988,1.9934060680754377
-0.7953734313992348,-2.10116380040988,0.8785615085797864
-0.7953734313992348,-2.10116380040988,-0.2793642061989101
-0.7953734313992348,-2.10116380040988,-1.755506168493652
-0.7953734313992348,-0.2793642061989101,1.9934060680754377
-0.7953734313992348,-0.2793642061989101,0.8785615085797864
-0.7953734313992348,-0.2793642061989101,-1.755506168493652
-0.7953734313992348,-1.755506168493652,1.9934060680754377
-0.7953734313992348,-1.755506168493652,0.8785615085797864
-0.7953734313992348,1.9934060680754377,0.8785615085797864
-0.6859797074662558,1.9934060680754377,0.8785615085797864
-0.6859797074662558,-2.10116380040988,1.9934060680754377
-0.6859797074662558,-2.10116380040988,0.8785615085797864
-0.6859797074662558,-2.10116380040988,-0.2793642061989101
-0.6859797074662558,-2.10116380040988,-1.755506168493652
-0.6859797074662558,-0.2793642061989101,1.9934060680754377
-0.6859797074662558,-0.2793642061989101,0.8785615085797864
-0.6859797074662558,-0.2793642061989101,-1.755506168493652
-0.6859797074662558,-1.755506168493652,1.9934060680754377
-0.6859797074662558,-1.755506168493652,0.8785615085797864
-2.10116380040988,1.9934060680754377,0.8785615085797864
-2.10116380040988,-0.2793642061989101,1.9934060680754377
-2.10116380040988,-0.2793642061989101,0.8785615085797864
-2.10116380040988,-0.2793642061989101,-1.755506168493652
-2.10116380040988,-1.755506168493652,1.9934060680754377
-2.10116380040988,-1.755506168493652,0.8785615085797864
-0.2793642061989101,1.9934060680754377,0.8785615085797864
-0.2793642061989101,-1.755506168493652,1.9934060680754377
-0.2793642061989101,-1.755506168493652,0.8785615085797864
-1.755506168493652,1.9934060680754377,0.8785615085797864
