0,1,2
-1.5664516786877898,1.2634408500379193,1.0501231528237298
-1.5664516786877898,1.2634408500379193,0.7067015778199947
-1.5664516786877898,1.2634408500379193,-0.27573814935962787
-1.5664516786877898,1.2634408500379193,0.3341073087697034
-1.5664516786877898,1.2634408500379193,-0.6434039132767033
-1.5664516786877898,1.2634408500379193,0.3090625880689253
-1.5664516786877898,1.2634408500379193,0.1429060128980301
-1.5664516786877898,1.2634408500379193,-2.0958740416969834
-1.5664516786877898,1.0501231528237298,0.7067015778199947
-1.5664516786877898,1.0501231528237298,-0.27573814935962787
-1.5664516786877898,1.0501231528237298,0.3341073087697034
-1.5664516786877898,1.0501231528237298,-0.6434039132767033
-1.5664516786877898,1.0501231528237298,0.3090625880689253
-1.5664516786877898,1.0501231528237298,0.1429060128980301
-1.5664516786877898,1.0501231528237298,-2.0958740416969834
-1.5664516786877898,0.7067015778199947,-0.27573814935962787
-1.5664516786877898,0.7067015778199947,0.3341073087697034
-1.5664516786877898,0.7067015778199947,-0.6434039132767033
-1.5664516786877898,0.7067015778199947,0.3090625880689253
-1.5664516786877898,0.7067015778199947,0.1429060128980301
-1.5664516786877898,0.7067015778199947,-2.0958740416969834
-1.5664516786877898,-0.27573814935962787,0.1429060128980301
-1.5664516786877898,-0.27573814935962787,-2.0958740416969834
-1.5664516786877898,-0.27573814935962787,0.3341073087697034
-1.5664516786877898,-0.27573814935962787,-0.6434039132767033
-1.5664516786877898,-0.27573814935962787,0.3090625880689253
-1.5664516786877898,0.3341073087697034,0.1429060128980301
-1.5664516786877898,0.3341073087697034,-2.0958740416969834
-1.5664516786877898,0.3341073087697034,-0.6434039132767033
-1.5664516786877898,0.3341073087697034,0.3090625880689253
-1.5664516786877898,-0.6434039132767033,0.1429060128980301
-1.5664516786877898,-0.6434039132767033,-2.0958740416969834
-1.5664516786877898,-0.6434039132767033,0.3090625880689253
-1.5664516786877898,0.3090625880689253,0.1429060128980301
-1.5664516786877898,0.3090625880689253,-2.0958740416969834
-1.5664516786877898,0.1429060128980301,-2.0958740416969834
1.2634408500379193,1.0501231528237298,0.7067015778199947
1.2634408500379193,1.0501231528237298,-0.27573814935962787
1.2634408500379193,1.0501231528237298,0.3341073087697034
1.2634408500379193,1.0501231528237298,-0.6434039132767033
1.2634408500379193,1.0501231528237298,0.3090625880689253
1.2634408500379193,1.0501231528237298,0.1429060128980301
1.2634408500379193,1.0501231528237298,-2.0958740416969834
1.2634408500379193,0.7067015778199947,-0.27573814935962787
1.2634408500379193,0.7067015778199947,0.3341073087697034
1.2634408500379193,0.7067015778199947,-0.6434039132767033
1.2634408500379193,0.7067015778199947,0.3090625880689253
1.2634408500379193,0.7067015778199947,0.1429060128980301
1.2634408500379193,0.7067015778199947,-2.0958740416969834
1.2634408500379193,-0.27573814935962787,0.1429060128980301
1.2634408500379193,-0.27573814935962787,-2.0958740416969834
1.2634408500379193,-0.27573814935962787,0.3341073087697034
1.2634408500379193,-0.27573814935962787,-0.6434039132767033
1.2634408500379193,-0.27573814935962787,0.3090625880689253
1.2634408500379193,0.3341073087697034,0.1429060128980301
1.2634408500379193,0.3341073087697034,-2.0958740416969834
1.2634408500379193,0.3341073087697034,-0.6434039132767033
1.2634408500379193,0.3341073087697034,0.3090625880689253
1.2634408500379193,-0.6434039132767033,0.1429060128980301
1.2634408500379193,-0.6434039132767033,-2.0958740416969834
1.2634408500379193,-0.6434039132767033,0.3090625880689253
1.2634408500379193,0.3090625880689253,0.1429060128980301
1.2634408500379193,0.3090625880689253,-2.0958740416969834
1.2634408500379193,0.1429060128980301,-2.0958740416969834
1.0501231528237298,0.7067015778199947,-0.27573814935962787
1.0501231528237298,0.7067015778199947,0.3341073087697034
1.0501231528237298,0.7067015778199947,-0.6434039132767033
1.0501231528237298,0.7067015778199947,0.3090625880689253
1.0501231528237298,0.7067015778199947,0.1429060128980301
1.0501231528237298,0.7067015778199947,-2.0958740416969834
1.0501231528237298,-0.27573814935962787,0.1429060128980301
1.0501231528237298,-0.27573814935962787,-2.0958740416969834
1.0501231528237298,-0.27573814935962787,0.3341073087697034
1.0501231528237298,-0.27573814935962787,-0.6434039132767033
1.0501231528237298,-0.27573814935962787,0.3090625880689253
1.0501231528237298,0.3341073087697034,0.1429060128980301
1.0501231528237298,0.3341073087697034,-2.0958740416969834
1.0501231528237298,0.3341073087697034,-0.6434039132767033
1.0501231528237298,0.3341073087697034,0.3090625880689253
1.0501231528237298,-0.6434039132767033,0.1429060128980301
1.0501231528237298,-0.6434039132767033,-2.0958740416969834
1.0501231528237298,-0.6434039132767033,0.3090625880689253
1.0501231528237298,0.3090625880689253,0.1429060128980301
1.0501231528237298,0.3090625880689253,-2.0958740416969834
1.0501231528237298,0.1429060128980301,-2.0958740416969834
0.7067015778199947,-0.27573814935962787,0.1429060128980301
0.7067015778199947,-0.27573814935962787,-2.0958740416969834
0.7067015778199947,-0.27573814935962787,0.3341073087697034
0.7067015778199947,-0.27573814935962787,-0.6434039132767033
0.7067015778199947,-0.27573814935962787,0.3090625880689253
0.7067015778199947,0.3341073087697034,0.1429060128980301
0.7067015778199947,0.3341073087697034,-2.0958740416969834
0.7067015778199947,0.3341073087697034,-0.6434039132767033
0.7067015778199947,0.3341073087697034,0.3090625880689253
0.7067015778199947,-0.6434039132767033,0.1429060128980301
0.7067015778199947,-0.6434039132767033,-2.0958740416969834
0.7067015778199947,-0.6434039132767033,0.3090625880689253
0.7067015778199947,0.3090625880689253,0.1429060128980301
0.7067015778199947,0.3090625880689253,-2.0958740416969834
0.7067015778199947,0.1429060128980301,-2.0958740416969834
-0.27573814935962787,0.1429060128980301,-2.0958740416969834
-0.27573814935962787,0.3341073087697034,0.1429060128980301
-0.27573814935962787,0.3341073087697034,-2.0958740416969834
-0.27573814935962787,0.3341073087697034,-0.6434039132767033
-0.27573814935962787,0.3341073087697034,0.3090625880689253
-0.27573814935962787,-0.6434039132767033,0.1429060128980301
-0.27573814935962787,-0.6434039132767033,-2.0958740416969834
-0.27573814935962787,-0.6434039132767033,0.3090625880689253
-0.27573814935962787,0.3090625880689253,0.1429060128980301
-0.27573814935962787,0.3090625880689253,-2.0958740416969834
0.3341073087697034,0.1429060128980301,-2.0958740416969834
0.3341073087697034,-0.6434039132767033,0.1429060128980301
0.3341073087697034,-0.6434039132767033,-2.0958740416969834
0.3341073087697034,-0.6434039132767033,0.3090625880689253
0.3341073087697034,0.3090625880689253,0.1429060128980301
0.3341073087697034,0.3090625880689253,-2.0958740416969834
-0.6434039132767033,0.1429060128980301,-2.0958740416969834
-0.6434039132767033,0.3090625880689253,0.1429060128980301
-0.6434039132767033,0.3090625880689253,-2.0958740416969834
0.3090625880689253,0.1429060128980301,-2.0958740416969834
