0,1,2
-0.10758363462219296,0.02120499551157521,-0.19400461887077555
-0.10758363462219296,0.02120499551157521,-0.5393494010958357
-0.10758363462219296,0.02120499551157521,-0.4076074262368449
-0.10758363462219296,0.02120499551157521,-0.34642743269540577
-0.10758363462219296,0.02120499551157521,1.1129830873435502
-0.10758363462219296,0.02120499551157521,-0.3846869413694965
-0.10758363462219296,0.02120499551157521,-1.312922323354074
-0.10758363462219296,0.02120499551157521,-1.0482246812887823
-0.10758363462219296,-0.19400461887077555,-0.5393494010958357
-0.10758363462219296,-0.19400461887077555,-0.4076074262368449
-0.10758363462219296,-0.19400461887077555,-0.34642743269540577
-0.10758363462219296,-0.19400461887077555,1.1129830873435502
-0.10758363462219296,-0.19400461887077555,-0.3846869413694965
-0.10758363462219296,-0.19400461887077555,-1.312922323354074
-0.10758363462219296,-0.19400461887077555,-1.0482246812887823
-0.10758363462219296,-0.5393494010958357,-0.4076074262368449
-0.10758363462219296,-0.5393494010958357,-0.34642743269540577
-0.10758363462219296,-0.5393494010958357,1.1129830873435502
-0.10758363462219296,-0.5393494010958357,-0.3846869413694965
-0.10758363462219296,-0.5393494010958357,-1.312922323354074
-0.10758363462219296,-0.5393494010958357,-1.0482246812887823
-0.10758363462219296,-0.4076074262368449,-1.312922323354074
-0.10758363462219296,-0.4076074262368449,-1.0482246812887823
-0.10758363462219296,-0.4076074262368449,-0.34642743269540577
-0.10758363462219296,-0.4076074262368449,1.1129830873435502
-0.10758363462219296,-0.4076074262368449,-0.3846869413694965
-0.10758363462219296,-0.34642743269540577,-1.312922323354074
-0.10758363462219296,-0.34642743269540577,-1.0482246812887823
-0.10758363462219296,-0.34642743269540577,1.1129830873435502
-0.10758363462219296,-0.34642743269540577,-0.3846869413694965
-0.10758363462219296,1.1129830873435502,-1.312922323354074
-0.10758363462219296,1.1129830873435502,-1.0482246812887823
-0.10758363462219296,1.1129830873435502,-0.3846869413694965
-0.10758363462219296,-0.3846869413694965,-1.312922323354074
-0.10758363462219296,-0.3846869413694965,-1.0482246812887823
-0.10758363462219296,-1.312922323354074,-1.0482246812887823
0.02120499551157521,-0.19400461887077555,-0.5393494010958357
0.02120499551157521,-0.19400461887077555,-0.4076074262368449
0.02120499551157521,-0.19400461887077555,-0.34642743269540577
0.02120499551157521,-0.19400461887077555,1.1129830873435502
0.02120499551157521,-0.19400461887077555,-0.3846869413694965
0.02120499551157521,-0.19400461887077555,-1.312922323354074
0.02120499551157521,-0.19400461887077555,-1.0482246812887823
0.02120499551157521,-0.5393494010958357,-0.4076074262368449
0.02120499551157521,-0.5393494010958357,-0.34642743269540577
0.02120499551157521,-0.5393494010958357,1.1129830873435502
0.02120499551157521,-0.5393494010958357,-0.3846869413694965
0.02120499551157521,-0.5393494010958357,-1.312922323354074
0.02120499551157521,-0.5393494010958357,-1.0482246812887823
0.02120499551157521,-0.4076074262368449,-1.312922323354074
0.02120499551157521,-0.4076074262368449,-1.0482246812887823
0.02120499551157521,-0.4076074262368449,-0.34642743269540577
0.02120499551157521,-0.4076074262368449,1.1129830873435502
0.02120499551157521,-0.4076074262368449,-0.3846869413694965
0.02120499551157521,-0.34642743269540577,-1.312922323354074
0.02120499551157521,-0.34642743269540577,-1.0482246812887823
0.02120499551157521,-0.34642743269540577,1.1129830873435502
0.02120499551157521,-0.34642743269540577,-0.3846869413694965
0.02120499551157521,1.1129830873435502,-1.312922323354074
0.02120499551157521,1.1129830873435502,-1.0482246812887823
0.02120499551157521,1.1129830873435502,-0.3846869413694965
0.02120499551157521,-0.3846869413694965,-1.312922323354074
0.02120499551157521,-0.3846869413694965,-1.0482246812887823
0.02120499551157521,-1.312922323354074,-1.0482246812887823
-0.19400461887077555,-0.5393494010958357,-0.4076074262368449
-0.19400461887077555,-0.5393494010958357,-0.34642743269540577
-0.19400461887077555,-0.5393494010958357,1.1129830873435502
-0.19400461887077555,-0.5393494010958357,-0.3846869413694965
-0.19400461887077555,-0.5393494010958357,-1.312922323354074
-0.19400461887077555,-0.5393494010958357,-1.0482246812887823
-0.19400461887077555,-0.4076074262368449,-1.312922323354074
-0.19400461887077555,-0.4076074262368449,-1.0482246812887823
-0.19400461887077555,-0.4076074262368449,-0.34642743269540577
-0.19400461887077555,-0.4076074262368449,1.1129830873435502
-0.19400461887077555,-0.4076074262368449,-0.3846869413694965
-0.19400461887077555,-0.34642743269540577,-1.312922323354074
-0.19400461887077555,-0.34642743269540577,-1.0482246812887823
-0.19400461887077555,-0.34642743269540577,1.1129830873435502
-0.19400461887077555,-0.34642743269540577,-0.3846869413694965
-0.19400461887077555,1.1129830873435502,-1.312922323354074
-0.19400461887077555,1.1129830873435502,-1.0482246812887823
-0.19400461887077555,1.1129830873435502,-0.3846869413694965
-0.19400461887077555,-0.3846869413694965,-1.312922323354074
-0.19400461887077555,-0.3846869413694965,-1.0482246812887823
-0.19400461887077555,-1.312922323354074,-1.0482246812887823
-0.5393494010958357,-0.4076074262368449,-1.312922323354074
-0.5393494010958357,-0.4076074262368449,-1.0482246812887823
-0.5393494010958357,-0.4076074262368449,-0.34642743269540577
-0.5393494010958357,-0.4076074262368449,1.1129830873435502
-0.5393494010958357,-0.4076074262368449,-0.3846869413694965
-0.5393494010958357,-0.34642743269540577,-1.312922323354074
-0.5393494010958357,-0.34642743269540577,-1.0482246812887823
-0.5393494010958357,-0.34642743269540577,1.1129830873435502
-0.5393494010958357,-0.34642743269540577,-0.3846869413694965
-0.5393494010958357,1.1129830873435502,-1.312922323354074
-0.5393494010958357,1.1129830873435502,-1.0482246812887823
-0.5393494010958357,1.1129830873435502,-0.3846869413694965
-0.5393494010958357,-0.3846869413694965,-1.312922323354074
-0.5393494010958357,-0.3846869413694965,-1.0482246812887823
-0.5393494010958357,-1.312922323354074,-1.0482246812887823
-0.4076074262368449,-1.312922323354074,-1.0482246812887823
-0.4076074262368449,-0.34642743269540577,-1.312922323354074
-0.4076074262368449,-0.34642743269540577,-1.0482246812887823
-0.4076074262368449,-0.34642743269540577,1.1129830873435502
-0.4076074262368449,-0.34642743269540577,-0.3846869413694965
-0.4076074262368449,1.1129830873435502,-1.312922323354074
-0.4076074262368449,1.1129830873435502,-1.0482246812887823
-0.4076074262368449,1.1129830873435502,-0.3846869413694965
-0.4076074262368449,-0.3846869413694965,-1.312922323354074
-0.4076074262368449,-0.3846869413694965,-1.0482246812887823
-0.34642743269540577,-1.312922323354074,-1.0482246812887823
-0.34642743269540577,1.1129830873435502,-1.312922323354074
-0.34642743269540577,1.1129830873435502,-1.0482246812887823
-0.34642743269540577,1.1129830873435502,-0.3846869413694965
-0.34642743269540577,-0.3846869413694965,-1.312922323354074
-0.34642743269540577,-0.3846869413694965,-1.0482246812887823
1.1129830873435502,-1.312922323354074,-1.0482246812887823
1.1129830873435502,-0.3846869413694965,-1.312922323354074
1.1129830873435502,-0.3846869413694965,-1.0482246812887823
-0.3846869413694965,-1.312922323354074,-1.0482246812887823
