0,1,2
-0.4624335810752657,-1.3626649619926636,1.3973067133077492
-0.4624335810752657,-1.3626649619926636,-0.7562203326632657
-0.4624335810752657,-1.3626649619926636,-0.5189574405037356
-0.4624335810752657,-1.3626649619926636,-1.1519823050790516
-0.4624335810752657,-1.3626649619926636,0.9172015639071635
-0.4624335810752657,-1.3626649619926636,0.11712213671175147
-0.4624335810752657,-1.3626649619926636,-0.03204710497637101
-0.4624335810752657,-1.3626649619926636,-0.7755753000918193
-0.4624335810752657,1.3973067133077492,-0.7562203326632657
-0.4624335810752657,1.3973067133077492,-0.5189574405037356
-0.4624335810752657,1.3973067133077492,-1.1519823050790516
-0.4624335810752657,1.3973067133077492,0.9172015639071635
-0.4624335810752657,1.3973067133077492,0.11712213671175147
-0.4624335810752657,1.3973067133077492,-0.03204710497637101
-0.4624335810752657,1.3973067133077492,-0.7755753000918193
-0.4624335810752657,-0.7562203326632657,-0.5189574405037356
-0.4624335810752657,-0.7562203326632657,-1.1519823050790516
-0.4624335810752657,-0.7562203326632657,0.9172015639071635
-0.4624335810752657,-0.7562203326632657,0.11712213671175147
-0.4624335810752657,-0.7562203326632657,-0.03204710497637101
-0.4624335810752657,-0.7562203326632657,-0.7755753000918193
-0.4624335810752657,-0.5189574405037356,-0.03204710497637101
-0.4624335810752657,-0.5189574405037356,-0.7755753000918193
-0.4624335810752657,-0.5189574405037356,-1.1519823050790516
-0.4624335810752657,-0.5189574405037356,0.9172015639071635
-0.4624335810752657,-0.5189574405037356,0.11712213671175147
-0.4624335810752657,-1.1519823050790516,-0.03204710497637101
-0.4624335810752657,-1.1519823050790516,-0.7755753000918193
-0.4624335810752657,-1.1519823050790516,0.9172015639071635
-0.4624335810752657,-1.1519823050790516,0.11712213671175147
-0.4624335810752657,0.9172015639071635,-0.03204710497637101
-0.4624335810752657,0.9172015639071635,-0.7755753000918193
-0.4624335810752657,0.9172015639071635,0.11712213671175147
-0.4624335810752657,0.11712213671175147,-0.03204710497637101
-0.4624335810752657,0.11712213671175147,-0.7755753000918193
-0.4624335810752657,-0.03204710497637101,-0.7755753000918193
-1.3626649619926636,1.3973067133077492,-0.7562203326632657
-1.3626649619926636,1.3973067133077492,-0.5189574405037356
-1.3626649619926636,1.3973067133077492,-1.1519823050790516
-1.3626649619926636,1.3973067133077492,0.9172015639071635
-1.3626649619926636,1.3973067133077492,0.11712213671175147
-1.3626649619926636,1.3973067133077492,-0.03204710497637101
-1.3626649619926636,1.3973067133077492,-0.7755753000918193
-1.3626649619926636,-0.7562203326632657,-0.5189574405037356
-1.3626649619926636,-0.7562203326632657,-1.1519823050790516
-1.3626649619926636,-0.7562203326632657,0.9172015639071635
-1.3626649619926636,-0.7562203326632657,0.11712213671175147
-1.3626649619926636,-0.7562203326632657,-0.03204710497637101
-1.3626649619926636,-0.7562203326632657,-0.7755753000918193
-1.3626649619926636,-0.5189574405037356,-0.03204710497637101
-1.3626649619926636,-0.5189574405037356,-0.7755753000918193
-1.3626649619926636,-0.5189574405037356,-1.1519823050790516
-1.3626649619926636,-0.5189574405037356,0.9172015639071635
-1.3626649619926636,-0.5189574405037356,0.11712213671175147
-1.3626649619926636,-1.1519823050790516,-0.03204710497637101
-1.3626649619926636,-1.1519823050790516,-0.7755753000918193
-1.3626649619926636,-1.1519823050790516,0.9172015639071635
-1.3626649619926636,-1.1519823050790516,0.11712213671175147
-1.3626649619926636,0.9172015639071635,-0.03204710497637101
-1.3626649619926636,0.9172015639071635,-0.7755753000918193
-1.3626649619926636,0.9172015639071635,0.11712213671175147
-1.3626649619926636,0.11712213671175147,-0.03204710497637101
-1.3626649619926636,0.11712213671175147,-0.7755753000918193
-1.3626649619926636,-0.03204710497637101,-0.7755753000918193
1.3973067133077492,-0.7562203326632657,-0.5189574405037356
1.3973067133077492,-0.7562203326632657,-1.1519823050790516
1.3973067133077492,-0.7562203326632657,0.9172015639071635
1.3973067133077492,-0.7562203326632657,0.11712213671175147
1.3973067133077492,-0.7562203326632657,-0.03204710497637101
1.3973067133077492,-0.7562203326632657,-0.7755753000918193
1.3973067133077492,-0.5189574405037356,-0.03204710497637101
1.3973067133077492,-0.5189574405037356,-0.7755753000918193
1.3973067133077492,-0.5189574405037356,-1.1519823050790516
1.3973067133077492,-0.5189574405037356,0.9172015639071635
1.3973067133077492,-0.5189574405037356,0.11712213671175147
1.3973067133077492,-1.1519823050790516,-0.03204710497637101
1.3973067133077492,-1.1519823050790516,-0.7755753000918193
1.3973067133077492,-1.1519823050790516,0.9172015639071635
1.3973067133077492,-1.1519823050790516,0.11712213671175147
1.3973067133077492,0.9172015639071635,-0.03204710497637101
1.3973067133077492,0.9172015639071635,-0.7755753000918193
1.3973067133077492,0.9172015639071635,0.11712213671175147
1.3973067133077492,0.11712213671175147,-0.03204710497637101
1.3973067133077492,0.11712213671175147,-0.7755753000918193
1.3973067133077492,-0.03204710497637101,-0.7755753000918193
-0.7562203326632657,-0.5189574405037356,-0.03204710497637101
-0.7562203326632657,-0.5189574405037356,-0.7755753000918193
-0.7562203326632657,-0.5189574405037356,-1.1519823050790516
-0.7562203326632657,-0.5189574405037356,0.9172015639071635
-0.7562203326632657,-0.5189574405037356,0.11712213671175147
-0.7562203326632657,-1.1519823050790516,-0.03204710497637101
-0.7562203326632657,-1.1519823050790516,-0.7755753000918193
-0.7562203326632657,-1.1519823050790516,0.9172015639071635
-0.7562203326632657,-1.1519823050790516,0.11712213671175147
-0.7562203326632657,0.9172015639071635,-0.03204710497637101
-0.7562203326632657,0.9172015639071635,-0.7755753000918193
-0.7562203326632657,0.9172015639071635,0.11712213671175147
-0.7562203326632657,0.11712213671175147,-0.03204710497637101
-0.7562203326632657,0.11712213671175147,-0.7755753000918193
-0.7562203326632657,-0.03204710497637101,-0.7755753000918193
-0.5189574405037356,-0.03204710497637101,-0.7755753000918193
-0.5189574405037356,-1.1519823050790516,-0.03204710497637101
-0.5189574405037356,-1.1519823050790516,-0.7755753000918193
-0.5189574405037356,-1.1519823050790516,0.9172015639071635
-0.5189574405037356,-1.1519823050790516,0.11712213671175147
-0.5189574405037356,0.9172015639071635,-0.03204710497637101
-0.5189574405037356,0.9172015639071635,-0.7755753000918193
-0.5189574405037356,0.9172015639071635,0.11712213671175147
-0.5189574405037356,0.11712213671175147,-0.03204710497637101
-0.5189574405037356,0.11712213671175147,-0.7755753000918193
-1.1519823050790516,-0.03204710497637101,-0.7755753000918193
-1.1519823050790516,0.9172015639071635,-0.03204710497637101
-1.1519823050790516,0.9172015639071635,-0.7755753000918193
-1.1519823050790516,0.9172015639071635,0.11712213671175147
-1.1519823050790516,0.11712213671175147,-0.03204710497637101
-1.1519823050790516,0.11712213671175147,-0.7755753000918193
0.9172015639071635,-0.03204710497637101,-0.7755753000918193
0.9172015639071635,0.11712213671175147,-0.03204710497637101
0.9172015639071635,0.11712213671175147,-0.7755753000918193
0.11712213671175147,-0.03204710497637101,-0.7755753000918193
