0,1,2
-0.8304013555038238,-1.6011513880265533,1.8460288375626697
-0.8304013555038238,-1.6011513880265533,0.48801346646222377
-0.8304013555038238,-1.6011513880265533,0.969402341416895
-0.8304013555038238,-1.6011513880265533,0.556043911327723
-0.8304013555038238,-1.6011513880265533,0.39621775838711115
-0.8304013555038238,-1.6011513880265533,0.2924462513763252
-0.8304013555038238,-1.6011513880265533,-0.01458031282496692
-0.8304013555038238,-1.6011513880265533,0.15428411129459266
-0.8304013555038238,1.8460288375626697,0.48801346646222377
-0.8304013555038238,1.8460288375626697,0.969402341416895
-0.8304013555038238,1.8460288375626697,0.556043911327723
-0.8304013555038238,1.8460288375626697,0.39621775838711115
-0.8304013555038238,1.8460288375626697,0.2924462513763252
-0.8304013555038238,1.8460288375626697,-0.01458031282496692
-0.8304013555038238,1.8460288375626697,0.15428411129459266
-0.8304013555038238,0.48801346646222377,0.969402341416895
-0.8304013555038238,0.48801346646222377,0.556043911327723
-0.8304013555038238,0.48801346646222377,0.39621775838711115
-0.8304013555038238,0.48801346646222377,0.2924462513763252
-0.8304013555038238,0.48801346646222377,-0.01458031282496692
-0.8304013555038238,0.48801346646222377,0.15428411129459266
-0.8304013555038238,0.969402341416895,-0.01458031282496692
-0.8304013555038238,0.969402341416895,0.15428411129459266
-0.8304013555038238,0.969402341416895,0.556043911327723
-0.8304013555038238,0.969402341416895,0.39621775838711115
-0.8304013555038238,0.969402341416895,0.2924462513763252
-0.8304013555038238,0.556043911327723,-0.01458031282496692
-0.8304013555038238,0.556043911327723,0.15428411129459266
-0.8304013555038238,0.556043911327723,0.39621775838711115
-0.8304013555038238,0.556043911327723,0.2924462513763252
-0.8304013555038238,0.39621775838711115,-0.01458031282496692
-0.8304013555038238,0.39621775838711115,0.15428411129459266
-0.8304013555038238,0.39621775838711115,0.2924462513763252
-0.8304013555038238,0.2924462513763252,-0.01458031282496692
-0.8304013555038238,0.2924462513763252,0.15428411129459266
-0.8304013555038238,-0.01458031282496692,0.15428411129459266
-1.6011513880265533,1.8460288375626697,0.48801346646222377
-1.6011513880265533,1.8460288375626697,0.969402341416895
-1.6011513880265533,1.8460288375626697,0.556043911327723
-1.6011513880265533,1.8460288375626697,0.39621775838711115
-1.6011513880265533,1.8460288375626697,0.2924462513763252
-1.6011513880265533,1.8460288375626697,-0.01458031282496692
-1.6011513880265533,1.8460288375626697,0.15428411129459266
-1.6011513880265533,0.48801346646222377,0.969402341416895
-1.6011513880265533,0.48801346646222377,0.556043911327723
-1.6011513880265533,0.48801346646222377,0.39621775838711115
-1.6011513880265533,0.48801346646222377,0.2924462513763252
-1.6011513880265533,0.48801346646222377,-0.01458031282496692
-1.6011513880265533,0.48801346646222377,0.15428411129459266
-1.6011513880265533,0.969402341416895,-0.01458031282496692
-1.6011513880265533,0.969402341416895,0.15428411129459266
-1.6011513880265533,0.969402341416895,0.556043911327723
-1.6011513880265533,0.969402341416895,0.39621775838711115
-1.6011513880265533,0.969402341416895,0.2924462513763252
-1.6011513880265533,0.556043911327723,-0.01458031282496692
-1.6011513880265533,0.556043911327723,0.15428411129459266
-1.6011513880265533,0.556043911327723,0.39621775838711115
-1.6011513880265533,0.556043911327723,0.2924462513763252
-1.6011513880265533,0.39621775838711115,-0.01458031282496692
-1.6011513880265533,0.39621775838711115,0.15428411129459266
-1.6011513880265533,0.39621775838711115,0.2924462513763252
-1.6011513880265533,0.2924462513763252,-0.01458031282496692
-1.6011513880265533,0.2924462513763252,0.15428411129459266
-1.6011513880265533,-0.01458031282496692,0.15428411129459266
1.8460288375626697,0.48801346646222377,0.969402341416895
1.8460288375626697,0.48801346646222377,0.556043911327723
1.8460288375626697,0.48801346646222377,0.39621775838711115
1.8460288375626697,0.48801346646222377,0.2924462513763252
1.8460288375626697,0.48801346646222377,-0.01458031282496692
1.8460288375626697,0.48801346646222377,0.15428411129459266
1.8460288375626697,0.969402341416895,-0.01458031282496692
1.8460288375626697,0.969402341416895,0.15428411129459266
1.8460288375626697,0.969402341416895,0.556043911327723
1.8460288375626697,0.969402341416895,0.39621775838711115
1.8460288375626697,0.969402341416895,0.2924462513763252
1.8460288375626697,0.556043911327723,-0.01458031282496692
1.8460288375626697,0.556043911327723,0.15428411129459266
1.8460288375626697,0.556043911327723,0.39621775838711115
1.8460288375626697,0.556043911327723,0.2924462513763252
1.8460288375626697,0.39621775838711115,-0.01458031282496692
1.8460288375626697,0.39621775838711115,0.15428411129459266
1.8460288375626697,0.39621775838711115,0.2924462513763252
1.8460288375626697,0.2924462513763252,-0.01458031282496692
1.8460288375626697,0.2924462513763252,0.15428411129459266
1.8460288375626697,-0.01458031282496692,0.15428411129459266
0.48801346646222377,0.969402341416895,-0.01458031282496692
0.48801346646222377,0.969402341416895,0.15428411129459266
0.48801346646222377,0.969402341416895,0.556043911327723
0.48801346646222377,0.969402341416895,0.39621775838711115
0.48801346646222377,0.969402341416895,0.2924462513763252
0.48801346646222377,0.556043911327723,-0.01458031282496692
0.48801346646222377,0.556043911327723,0.15428411129459266
0.48801346646222377,0.556043911327723,0.39621775838711115
0.48801346646222377,0.556043911327723,0.2924462513763252
0.48801346646222377,0.39621775838711115,-0.01458031282496692
0.48801346646222377,0.39621775838711115,0.15428411129459266
0.48801346646222377,0.39621775838711115,0.2924462513763252
0.48801346646222377,0.2924462513763252,-0.01458031282496692
0.48801346646222377,0.2924462513763252,0.15428411129459266
0.48801346646222377,-0.01458031282496692,0.15428411129459266
0.969402341416895,-0.01458031282496692,0.15428411129459266
0.969402341416895,0.556043911327723,-0.01458031282496692
0.969402341416895,0.556043911327723,0.15428411129459266
0.969402341416895,0.556043911327723,0.39621775838711115
0.969402341416895,0.556043911327723,0.2924462513763252
0.969402341416895,0.39621775838711115,-0.01458031282496692
0.969402341416895,0.39621775838711115,0.15428411129459266
0.969402341416895,0.39621775838711115,0.2924462513763252
0.969402341416895,0.2924462513763252,-0.01458031282496692
0.969402341416895,0.2924462513763252,0.15428411129459266
0.556043911327723,-0.01458031282496692,0.15428411129459266
0.556043911327723,0.39621775838711115,-0.01458031282496692
0.556043911327723,0.39621775838711115,0.15428411129459266
0.556043911327723,0.39621775838711115,0.2924462513763252
0.556043911327723,0.2924462513763252,-0.01458031282496692
0.556043911327723,0.2924462513763252,0.15428411129459266
0.39621775838711115,-0.01458031282496692,0.15428411129459266
0.39621775838711115,0.2924462513763252,-0.01458031282496692
0.39621775838711115,0.2924462513763252,0.15428411129459266
0.2924462513763252,-0.01458031282496692,0.15428411129459266
