0,1,2
0.3678951705644893,-0.05757495774869492,1.6788617651207287
0.3678951705644893,-0.05757495774869492,0.1267232158415393
0.3678951705644893,-0.05757495774869492,-1.1569221113908545
0.3678951705644893,-0.05757495774869492,-0.25523879290453794
0.3678951705644893,-0.05757495774869492,-0.5395382906361035
0.3678951705644893,-0.05757495774869492,-0.0702549524387609
0.3678951705644893,-0.05757495774869492,0.4201770381049845
0.3678951705644893,-0.05757495774869492,0.9043222449971416
0.3678951705644893,1.6788617651207287,0.1267232158415393
0.3678951705644893,1.6788617651207287,-1.1569221113908545
0.3678951705644893,1.6788617651207287,-0.25523879290453794
0.3678951705644893,1.6788617651207287,-0.5395382906361035
0.3678951705644893,1.6788617651207287,-0.0702549524387609
0.3678951705644893,1.6788617651207287,0.4201770381049845
0.3678951705644893,1.6788617651207287,0.9043222449971416
0.3678951705644893,0.1267232158415393,-1.1569221113908545
0.3678951705644893,0.1267232158415393,-0.25523879290453794
0.3678951705644893,0.1267232158415393,-0.5395382906361035
0.3678951705644893,0.1267232158415393,-0.0702549524387609
0.3678951705644893,0.1267232158415393,0.4201770381049845
0.3678951705644893,0.1267232158415393,0.9043222449971416
0.3678951705644893,-1.1569221113908545,0.4201770381049845
0.3678951705644893,-1.1569221113908545,0.9043222449971416
0.3678951705644893,-1.1569221113908545,-0.25523879290453794
0.3678951705644893,-1.1569221113908545,-0.5395382906361035
0.3678951705644893,-1.1569221113908545,-0.0702549524387609
0.3678951705644893,-0.25523879290453794,0.4201770381049845
0.3678951705644893,-0.25523879290453794,0.9043222449971416
0.3678951705644893,-0.25523879290453794,-0.5395382906361035
0.3678951705644893,-0.25523879290453794,-0.0702549524387609
0.3678951705644893,-0.5395382906361035,0.4201770381049845
0.3678951705644893,-0.5395382906361035,0.9043222449971416
0.3678951705644893,-0.5395382906361035,-0.0702549524387609
0.3678951705644893,-0.0702549524387609,0.4201770381049845
0.3678951705644893,-0.0702549524387609,0.9043222449971416
0.3678951705644893,0.4201770381049845,0.9043222449971416
-0.05757495774869492,1.6788617651207287,0.1267232158415393
-0.05757495774869492,1.6788617651207287,-1.1569221113908545
-0.05757495774869492,1.6788617651207287,-0.25523879290453794
-0.05757495774869492,1.6788617651207287,-0.5395382906361035
-0.05757495774869492,1.6788617651207287,-0.0702549524387609
-0.05757495774869492,1.6788617651207287,0.4201770381049845
-0.05757495774869492,1.6788617651207287,0.9043222449971416
-0.05757495774869492,0.1267232158415393,-1.1569221113908545
-0.05757495774869492,0.1267232158415393,-0.25523879290453794
-0.05757495774869492,0.1267232158415393,-0.5395382906361035
-0.05757495774869492,0.1267232158415393,-0.0702549524387609
-0.05757495774869492,0.1267232158415393,0.4201770381049845
-0.05757495774869492,0.1267232158415393,0.9043222449971416
-0.05757495774869492,-1.1569221113908545,0.4201770381049845
-0.05757495774869492,-1.1569221113908545,0.9043222449971416
-0.05757495774869492,-1.1569221113908545,-0.25523879290453794
-0.05757495774869492,-1.1569221113908545,-0.5395382906361035
-0.05757495774869492,-1.1569221113908545,-0.0702549524387609
-0.05757495774869492,-0.25523879290453794,0.4201770381049845
-0.05757495774869492,-0.25523879290453794,0.9043222449971416
-0.05757495774869492,-0.25523879290453794,-0.5395382906361035
-0.05757495774869492,-0.25523879290453794,-0.0702549524387609
-0.05757495774869492,-0.5395382906361035,0.4201770381049845
-0.05757495774869492,-0.5395382906361035,0.9043222449971416
-0.05757495774869492,-0.5395382906361035,-0.0702549524387609
-0.05757495774869492,-0.0702549524387609,0.4201770381049845
-0.05757495774869492,-0.0702549524387609,0.9043222449971416
-0.05757495774869492,0.4201770381049845,0.9043222449971416
1.6788617651207287,0.1267232158415393,-1.1569221113908545
1.6788617651207287,0.1267232158415393,-0.25523879290453794
1.6788617651207287,0.1267232158415393,-0.5395382906361035
1.6788617651207287,0.1267232158415393,-0.0702549524387609
1.6788617651207287,0.1267232158415393,0.4201770381049845
1.6788617651207287,0.1267232158415393,0.9043222449971416
1.6788617651207287,-1.1569221113908545,0.4201770381049845
1.6788617651207287,-1.1569221113908545,0.9043222449971416
1.6788617651207287,-1.1569221113908545,-0.25523879290453794
1.6788617651207287,-1.1569221113908545,-0.5395382906361035
1.6788617651207287,-1.1569221113908545,-0.0702549524387609
1.6788617651207287,-0.25523879290453794,0.4201770381049845
1.6788617651207287,-0.25523879290453794,0.9043222449971416
1.6788617651207287,-0.25523879290453794,-0.5395382906361035
1.6788617651207287,-0.25523879290453794,-0.0702549524387609
1.6788617651207287,-0.5395382906361035,0.4201770381049845
1.6788617651207287,-0.5395382906361035,0.9043222449971416
1.6788617651207287,-0.5395382906361035,-0.0702549524387609
1.6788617651207287,-0.0702549524387609,0.4201770381049845
1.6788617651207287,-0.0702549524387609,0.9043222449971416
1.6788617651207287,0.4201770381049845,0.9043222449971416
0.1267232158415393,-1.1569221113908545,0.4201770381049845
0.1267232158415393,-1.1569221113908545,0.9043222449971416
0.1267232158415393,-1.1569221113908545,-0.25523879290453794
0.1267232158415393,-1.1569221113908545,-0.5395382906361035
0.1267232158415393,-1.1569221113908545,-0.0702549524387609
0.1267232158415393,-0.25523879290453794,0.4201770381049845
0.1267232158415393,-0.25523879290453794,0.9043222449971416
0.1267232158415393,-0.25523879290453794,-0.5395382906361035
0.1267232158415393,-0.25523879290453794,-0.0702549524387609
0.1267232158415393,-0.5395382906361035,0.4201770381049845
0.1267232158415393,-0.5395382906361035,0.9043222449971416
0.1267232158415393,-0.5395382906361035,-0.0702549524387609
0.1267232158415393,-0.0702549524387609,0.4201770381049845
0.1267232158415393,-0.0702549524387609,0.9043222449971416
0.1267232158415393,0.4201770381049845,0.9043222449971416
-1.1569221113908545,0.4201770381049845,0.9043222449971416
-1.1569221113908545,-0.25523879290453794,0.4201770381049845
-1.1569221113908545,-0.25523879290453794,0.9043222449971416
-1.1569221113908545,-0.25523879290453794,-0.5395382906361035
-1.1569221113908545,-0.25523879290453794,-0.0702549524387609
-1.1569221113908545,-0.5395382906361035,0.4201770381049845
-1.1569221113908545,-0.5395382906361035,0.9043222449971416
-1.1569221113908545,-0.5395382906361035,-0.0702549524387609
-1.1569221113908545,-0.0702549524387609,0.4201770381049845
-1.1569221113908545,-0.0702549524387609,0.9043222449971416
-0.25523879290453794,0.4201770381049845,0.9043222449971416
-0.25523879290453794,-0.5395382906361035,0.4201770381049845
-0.25523879290453794,-0.5395382906361035,0.9043222449971416
-0.25523879290453794,-0.5395382906361035,-0.0702549524387609
-0.25523879290453794,-0.0702549524387609,0.4201770381049845
-0.25523879290453794,-0.0702549524387609,0.9043222449971416
-0.5395382906361035,0.4201770381049845,0.9043222449971416
-0.5395382906361035,-0.0702549524387609,0.4201770381049845
-0.5395382906361035,-0.0702549524387609,0.9043222449971416
-0.0702549524387609,0.4201770381049845,0.9043222449971416
