0,1,2
-0.5627995887672237,-1.295617438139213,2.0294675267650857
-0.5627995887672237,-1.295617438139213,-2.371079034056806
-0.5627995887672237,-1.295617438139213,-0.41130126145801693
-0.5627995887672237,-1.295617438139213,-0.31092731684931013
-0.5627995887672237,-1.295617438139213,-0.9035081819657937
-0.5627995887672237,-1.295617438139213,0.3964912389654307
-0.5627995887672237,-1.295617438139213,-0.46520099846189894
-0.5627995887672237,-1.295617438139213,1.5231049170397744
-0.5627995887672237,2.0294675267650857,-2.371079034056806
-0.5627995887672237,2.0294675267650857,-0.41130126145801693
-0.5627995887672237,2.0294675267650857,-0.31092731684931013
-0.5627995887672237,2.0294675267650857,-0.9035081819657937
-0.5627995887672237,2.0294675267650857,0.3964912389654307
-0.5627995887672237,2.0294675267650857,-0.46520099846189894
-0.5627995887672237,2.0294675267650857,1.5231049170397744
-0.5627995887672237,-2.371079034056806,-0.41130126145801693
-0.5627995887672237,-2.371079034056806,-0.31092731684931013
-0.5627995887672237,-2.371079034056806,-0.9035081819657937
-0.5627995887672237,-2.371079034056806,0.3964912389654307
-0.5627995887672237,-2.371079034056806,-0.46520099846189894
-0.5627995887672237,-2.371079034056806,1.5231049170397744
-0.5627995887672237,-0.41130126145801693,-0.46520099846189894
-0.5627995887672237,-0.41130126145801693,1.5231049170397744
-0.5627995887672237,-0.41130126145801693,-0.31092731684931013
-0.5627995887672237,-0.41130126145801693,-0.9035081819657937
-0.5627995887672237,-0.41130126145801693,0.3964912389654307
-0.5627995887672237,-0.31092731684931013,-0.46520099846189894
-0.5627995887672237,-0.31092731684931013,1.5231049170397744
-0.5627995887672237,-0.31092731684931013,-0.9035081819657937
-0.5627995887672237,-0.31092731684931013,0.3964912389654307
-0.5627995887672237,-0.9035081819657937,-0.46520099846189894
-0.5627995887672237,-0.9035081819657937,1.5231049170397744
-0.5627995887672237,-0.9035081819657937,0.3964912389654307
-0.5627995887672237,0.3964912389654307,-0.46520099846189894
-0.5627995887672237,0.3964912389654307,1.5231049170397744
-0.5627995887672237,-0.46520099846189894,1.5231049170397744
-1.295617438139213,2.0294675267650857,-2.371079034056806
-1.295617438139213,2.0294675267650857,-0.41130126145801693
-1.295617438139213,2.0294675267650857,-0.31092731684931013
-1.295617438139213,2.0294675267650857,-0.9035081819657937
-1.295617438139213,2.0294675267650857,0.3964912389654307
-1.295617438139213,2.0294675267650857,-0.46520099846189894
-1.295617438139213,2.0294675267650857,1.5231049170397744
-1.295617438139213,-2.371079034056806,-0.41130126145801693
-1.295617438139213,-2.371079034056806,-0.31092731684931013
-1.295617438139213,-2.371079034056806,-0.9035081819657937
-1.295617438139213,-2.371079034056806,0.3964912389654307
-1.295617438139213,-2.371079034056806,-0.46520099846189894
-1.295617438139213,-2.371079034056806,1.5231049170397744
-1.295617438139213,-0.41130126145801693,-0.46520099846189894
-1.295617438139213,-0.41130126145801693,1.5231049170397744
-1.295617438139213,-0.41130126145801693,-0.31092731684931013
-1.295617438139213,-0.41130126145801693,-0.9035081819657937
-1.295617438139213,-0.41130126145801693,0.3964912389654307
-1.295617438139213,-0.31092731684931013,-0.46520099846189894
-1.295617438139213,-0.31092731684931013,1.5231049170397744
-1.295617438139213,-0.31092731684931013,-0.9035081819657937
-1.295617438139213,-0.31092731684931013,0.3964912389654307
-1.295617438139213,-0.9035081819657937,-0.46520099846189894
-1.295617438139213,-0.9035081819657937,1.5231049170397744
-1.295617438139213,-0.9035081819657937,0.3964912389654307
-1.295617438139213,0.3964912389654307,-0.46520099846189894
-1.295617438139213,0.3964912389654307,1.5231049170397744
-1.295617438139213,-0.46520099846189894,1.5231049170397744
2.0294675267650857,-2.371079034056806,-0.41130126145801693
2.0294675267650857,-2.371079034056806,-0.31092731684931013
2.0294675267650857,-2.371079034056806,-0.9035081819657937
2.0294675267650857,-2.371079034056806,0.3964912389654307
2.0294675267650857,-2.371079034056806,-0.46520099846189894
2.0294675267650857,-2.371079034056806,1.5231049170397744
2.0294675267650857,-0.41130126145801693,-0.46520099846189894
2.0294675267650857,-0.41130126145801693,1.5231049170397744
2.0294675267650857,-0.41130126145801693,-0.31092731684931013
2.0294675267650857,-0.41130126145801693,-0.9035081819657937
2.0294675267650857,-0.41130126145801693,0.3964912389654307
2.0294675267650857,-0.31092731684931013,-0.46520099846189894
2.0294675267650857,-0.31092731684931013,1.5231049170397744
2.0294675267650857,-0.31092731684931013,-0.9035081819657937
2.0294675267650857,-0.31092731684931013,0.3964912389654307
2.0294675267650857,-0.9035081819657937,-0.46520099846189894
2.0294675267650857,-0.9035081819657937,1.5231049170397744
2.0294675267650857,-0.9035081819657937,0.3964912389654307
2.0294675267650857,0.3964912389654307,-0.46520099846189894
2.0294675267650857,0.3964912389654307,1.5231049170397744
2.0294675267650857,-0.46520099846189894,1.5231049170397744
-2.371079034056806,-0.41130126145801693,-0.46520099846189894
-2.371079034056806,-0.41130126145801693,1.5231049170397744
-2.371079034056806,-0.41130126145801693,-0.31092731684931013
-2.371079034056806,-0.41130126145801693,-0.9035081819657937
-2.371079034056806,-0.41130126145801693,0.3964912389654307
-2.371079034056806,-0.31092731684931013,-0.46520099846189894
-2.371079034056806,-0.31092731684931013,1.5231049170397744
-2.371079034056806,-0.31092731684931013,-0.9035081819657937
-2.371079034056806,-0.31092731684931013,0.3964912389654307
-2.371079034056806,-0.9035081819657937,-0.46520099846189894
-2.371079034056806,-0.9035081819657937,1.5231049170397744
-2.371079034056806,-0.9035081819657937,0.3964912389654307
-2.371079034056806,0.3964912389654307,-0.46520099846189894
-2.371079034056806,0.3964912389654307,1.5231049170397744
-2.371079034056806,-0.46520099846189894,1.5231049170397744
-0.41130126145801693,-0.46520099846189894,1.5231049170397744
-0.41130126145801693,-0.31092731684931013,-0.46520099846189894
-0.41130126145801693,-0.31092731684931013,1.5231049170397744
-0.41130126145801693,-0.31092731684931013,-0.9035081819657937
-0.41130126145801693,-0.31092731684931013,0.3964912389654307
-0.41130126145801693,-0.9035081819657937,-0.46520099846189894
-0.41130126145801693,-0.9035081819657937,1.5231049170397744
-0.41130126145801693,-0.9035081819657937,0.3964912389654307
-0.41130126145801693,0.3964912389654307,-0.46520099846189894
-0.41130126145801693,0.3964912389654307,1.5231049170397744
-0.31092731684931013,-0.46520099846189894,1.5231049170397744
-0.31092731684931013,-0.9035081819657937,-0.46520099846189894
-0.31092731684931013,-0.9035081819657937,1.5231049170397744
-0.31092731684931013,-0.9035081819657937,0.3964912389654307
-0.31092731684931013,0.3964912389654307,-0.46520099846189894
-0.31092731684931013,0.3964912389654307,1.5231049170397744
-0.9035081819657937,-0.46520099846189894,1.5231049170397744
-0.9035081819657937,0.3964912389654307,-0.46520099846189894
-0.9035081819657937,0.3964912389654307,1.5231049170397744
0.3964912389654307,-0.46520099846189894,1.5231049170397744
