0,1,2
1.272517962915105,0.2605645450268743,-0.5469849447582086
1.272517962915105,0.2605645450268743,-0.44064585989470334
1.272517962915105,0.2605645450268743,-0.3194755398761537
1.272517962915105,0.2605645450268743,-0.2990348774751353
1.272517962915105,0.2605645450268743,-0.4290607244846422
1.272517962915105,0.2605645450268743,-1.273556461282409
1.272517962915105,0.2605645450268743,-0.684183847419091
1.272517962915105,0.2605645450268743,-0.7258883615354167
1.272517962915105,-0.5469849447582086,-0.44064585989470334
1.272517962915105,-0.5469849447582086,-0.3194755398761537
1.272517962915105,-0.5469849447582086,-0.2990348774751353
1.272517962915105,-0.5469849447582086,-0.4290607244846422
1.272517962915105,-0.5469849447582086,-1.273556461282409
1.272517962915105,-0.5469849447582086,-0.684183847419091
1.272517962915105,-0.5469849447582086,-0.7258883615354167
1.272517962915105,-0.44064585989470334,-0.3194755398761537
1.272517962915105,-0.44064585989470334,-0.2990348774751353
1.272517962915105,-0.44064585989470334,-0.4290607244846422
1.272517962915105,-0.44064585989470334,-1.273556461282409
1.272517962915105,-0.44064585989470334,-0.684183847419091
1.272517962915105,-0.44064585989470334,-0.7258883615354167
1.272517962915105,-0.3194755398761537,-0.684183847419091
1.272517962915105,-0.3194755398761537,-0.7258883615354167
1.272517962915105,-0.3194755398761537,-0.2990348774751353
1.272517962915105,-0.3194755398761537,-0.4290607244846422
1.272517962915105,-0.3194755398761537,-1.273556461282409
1.272517962915105,-0.2990348774751353,-0.684183847419091
1.272517962915105,-0.2990348774751353,-0.7258883615354167
1.272517962915105,-0.2990348774751353,-0.4290607244846422
1.272517962915105,-0.2990348774751353,-1.273556461282409
1.272517962915105,-0.4290607244846422,-0.684183847419091
1.272517962915105,-0.4290607244846422,-0.7258883615354167
1.272517962915105,-0.4290607244846422,-1.273556461282409
1.272517962915105,-1.273556461282409,-0.684183847419091
1.272517962915105,-1.273556461282409,-0.7258883615354167
1.272517962915105,-0.684183847419091,-0.7258883615354167
0.2605645450268743,-0.5469849447582086,-0.44064585989470334
0.2605645450268743,-0.5469849447582086,-0.3194755398761537
0.2605645450268743,-0.5469849447582086,-0.2990348774751353
0.2605645450268743,-0.5469849447582086,-0.4290607244846422
0.2605645450268743,-0.5469849447582086,-1.273556461282409
0.2605645450268743,-0.5469849447582086,-0.684183847419091
0.2605645450268743,-0.5469849447582086,-0.7258883615354167
0.2605645450268743,-0.44064585989470334,-0.3194755398761537
0.2605645450268743,-0.44064585989470334,-0.2990348774751353
0.2605645450268743,-0.44064585989470334,-0.4290607244846422
0.2605645450268743,-0.44064585989470334,-1.273556461282409
0.2605645450268743,-0.44064585989470334,-0.684183847419091
0.2605645450268743,-0.44064585989470334,-0.7258883615354167
0.2605645450268743,-0.3194755398761537,-0.684183847419091
0.2605645450268743,-0.3194755398761537,-0.7258883615354167
0.2605645450268743,-0.3194755398761537,-0.2990348774751353
0.2605645450268743,-0.3194755398761537,-0.4290607244846422
0.2605645450268743,-0.3194755398761537,-1.273556461282409
0.2605645450268743,-0.2990348774751353,-0.684183847419091
0.2605645450268743,-0.2990348774751353,-0.7258883615354167
0.2605645450268743,-0.2990348774751353,-0.4290607244846422
0.2605645450268743,-0.2990348774751353,-1.273556461282409
0.2605645450268743,-0.4290607244846422,-0.684183847419091
0.2605645450268743,-0.4290607244846422,-0.7258883615354167
0.2605645450268743,-0.4290607244846422,-1.273556461282409
0.2605645450268743,-1.273556461282409,-0.684183847419091
0.2605645450268743,-1.273556461282409,-0.7258883615354167
0.2605645450268743,-0.684183847419091,-0.7258883615354167
-0.5469849447582086,-0.44064585989470334,-0.3194755398761537
-0.5469849447582086,-0.44064585989470334,-0.2990348774751353
-0.5469849447582086,-0.44064585989470334,-0.4290607244846422
-0.5469849447582086,-0.44064585989470334,-1.273556461282409
-0.5469849447582086,-0.44064585989470334,-0.684183847419091
-0.5469849447582086,-0.44064585989470334,-0.7258883615354167
-0.5469849447582086,-0.3194755398761537,-0.684183847419091
-0.5469849447582086,-0.3194755398761537,-0.7258883615354167
-0.5469849447582086,-0.3194755398761537,-0.2990348774751353
-0.5469849447582086,-0.3194755398761537,-0.4290607244846422
-0.5469849447582086,-0.3194755398761537,-1.273556461282409
-0.5469849447582086,-0.2990348774751353,-0.684183847419091
-0.5469849447582086,-0.2990348774751353,-0.7258883615354167
-0.5469849447582086,-0.2990348774751353,-0.4290607244846422
-0.5469849447582086,-0.2990348774751353,-1.273556461282409
-0.5469849447582086,-0.4290607244846422,-0.684183847419091
-0.5469849447582086,-0.4290607244846422,-0.7258883615354167
-0.5469849447582086,-0.4290607244846422,-1.273556461282409
-0.5469849447582086,-1.273556461282409,-0.684183847419091
-0.5469849447582086,-1.273556461282409,-0.7258883615354167
-0.5469849447582086,-0.684183847419091,-0.7258883615354167
-0.44064585989470334,-0.3194755398761537,-0.684183847419091
-0.44064585989470334,-0.3194755398761537,-0.7258883615354167
-0.44064585989470334,-0.3194755398761537,-0.2990348774751353
-0.44064585989470334,-0.3194755398761537,-0.4290607244846422
-0.44064585989470334,-0.3194755398761537,-1.273556461282409
-0.44064585989470334,-0.2990348774751353,-0.684183847419091
-0.44064585989470334,-0.2990348774751353,-0.7258883615354167
-0.44064585989470334,-0.2990348774751353,-0.4290607244846422
-0.44064585989470334,-0.2990348774751353,-1.273556461282409
-0.44064585989470334,-0.4290607244846422,-0.684183847419091
-0.44064585989470334,-0.4290607244846422,-0.7258883615354167
-0.44064585989470334,-0.4290607244846422,-1.273556461282409
-0.44064585989470334,-1.273556461282409,-0.684183847419091
-0.44064585989470334,-1.273556461282409,-0.7258883615354167
-0.44064585989470334,-0.684183847419091,-0.7258883615354167
-0.3194755398761537,-0.684183847419091,-0.7258883615354167
-0.3194755398761537,-0.2990348774751353,-0.684183847419091
-0.3194755398761537,-0.2990348774751353,-0.7258883615354167
-0.3194755398761537,-0.2990348774751353,-0.4290607244846422
-0.3194755398761537,-0.2990348774751353,-1.273556461282409
-0.3194755398761537,-0.4290607244846422,-0.684183847419091
-0.3194755398761537,-0.4290607244846422,-0.7258883615354167
-0.3194755398761537,-0.4290607244846422,-1.273556461282409
-0.3194755398761537,-1.273556461282409,-0.684183847419091
-0.3194755398761537,-1.273556461282409,-0.7258883615354167
-0.2990348774751353,-0.684183847419091,-0.7258883615354167
-0.2990348774751353,-0.4290607244846422,-0.684183847419091
-0.2990348774751353,-0.4290607244846422,-0.7258883615354167
-0.2990348774751353,-0.4290607244846422,-1.273556461282409
-0.2990348774751353,-1.273556461282409,-0.684183847419091
-0.2990348774751353,-1.273556461282409,-0.7258883615354167
-0.4290607244846422,-0.684183847419091,-0.7258883615354167
-0.4290607244846422,-1.273556461282409,-0.684183847419091
-0.4290607244846422,-1.273556461282409,-0.7258883615354167
-1.273556461282409,-0.684183847419091,-0.7258883615354167
