0,1,2
1.328815583739413,0.34918965213347786,-0.2924050951449258
1.328815583739413,0.34918965213347786,1.6659245648870866
1.328815583739413,0.34918965213347786,-0.47887491779399505
1.328815583739413,0.34918965213347786,-1.7386160149908472
1.328815583739413,0.34918965213347786,-1.0242581843681777
1.328815583739413,0.34918965213347786,0.13530546768341914
1.328815583739413,0.34918965213347786,0.7237652631061742
1.328815583739413,0.34918965213347786,1.418768688249041
1.328815583739413,-0.2924050951449258,1.6659245648870866
1.328815583739413,-0.2924050951449258,-0.47887491779399505
1.328815583739413,-0.2924050951449258,-1.7386160149908472
1.328815583739413,-0.2924050951449258,-1.0242581843681777
1.328815583739413,-0.2924050951449258,0.13530546768341914
1.328815583739413,-0.2924050951449258,0.7237652631061742
1.328815583739413,-0.2924050951449258,1.418768688249041
1.328815583739413,1.6659245648870866,-0.47887491779399505
1.328815583739413,1.6659245648870866,-1.7386160149908472
1.328815583739413,1.6659245648870866,-1.0242581843681777
1.328815583739413,1.6659245648870866,0.13530546768341914
1.328815583739413,1.6659245648870866,0.7237652631061742
1.328815583739413,1.6659245648870866,1.418768688249041
1.328815583739413,-0.47887491779399505,0.7237652631061742
1.328815583739413,-0.47887491779399505,1.418768688249041
1.328815583739413,-0.47887491779399505,-1.7386160149908472
1.328815583739413,-0.47887491779399505,-1.0242581843681777
1.328815583739413,-0.47887491779399505,0.13530546768341914
1.328815583739413,-1.7386160149908472,0.7237652631061742
1.328815583739413,-1.7386160149908472,1.418768688249041
1.328815583739413,-1.7386160149908472,-1.0242581843681777
1.328815583739413,-1.7386160149908472,0.13530546768341914
1.328815583739413,-1.0242581843681777,0.7237652631061742
1.328815583739413,-1.0242581843681777,1.418768688249041
1.328815583739413,-1.0242581843681777,0.13530546768341914
1.328815583739413,0.13530546768341914,0.7237652631061742
1.328815583739413,0.13530546768341914,1.418768688249041
1.328815583739413,0.7237652631061742,1.418768688249041
0.34918965213347786,-0.2924050951449258,1.6659245648870866
0.34918965213347786,-0.2924050951449258,-0.47887491779399505
0.34918965213347786,-0.2924050951449258,-1.7386160149908472
0.34918965213347786,-0.2924050951449258,-1.0242581843681777
0.34918965213347786,-0.2924050951449258,0.13530546768341914
0.34918965213347786,-0.2924050951449258,0.7237652631061742
0.34918965213347786,-0.2924050951449258,1.418768688249041
0.34918965213347786,1.6659245648870866,-0.47887491779399505
0.34918965213347786,1.6659245648870866,-1.7386160149908472
0.34918965213347786,1.6659245648870866,-1.0242581843681777
0.34918965213347786,1.6659245648870866,0.13530546768341914
0.34918965213347786,1.6659245648870866,0.7237652631061742
0.34918965213347786,1.6659245648870866,1.418768688249041
0.34918965213347786,-0.47887491779399505,0.7237652631061742
0.34918965213347786,-0.47887491779399505,1.418768688249041
0.34918965213347786,-0.47887491779399505,-1.7386160149908472
0.34918965213347786,-0.47887491779399505,-1.0242581843681777
0.34918965213347786,-0.47887491779399505,0.13530546768341914
0.34918965213347786,-1.7386160149908472,0.7237652631061742
0.34918965213347786,-1.7386160149908472,1.418768688249041
0.34918965213347786,-1.7386160149908472,-1.0242581843681777
0.34918965213347786,-1.7386160149908472,0.13530546768341914
0.34918965213347786,-1.0242581843681777,0.7237652631061742
0.34918965213347786,-1.0242581843681777,1.418768688249041
0.34918965213347786,-1.0242581843681777,0.13530546768341914
0.34918965213347786,0.13530546768341914,0.7237652631061742
0.34918965213347786,0.13530546768341914,1.418768688249041
0.34918965213347786,0.7237652631061742,1.418768688249041
-0.2924050951449258,1.6659245648870866,-0.47887491779399505
-0.2924050951449258,1.6659245648870866,-1.7386160149908472
-0.2924050951449258,1.6659245648870866,-1.0242581843681777
-0.2924050951449258,1.6659245648870866,0.13530546768341914
-0.2924050951449258,1.6659245648870866,0.7237652631061742
-0.2924050951449258,1.6659245648870866,1.418768688249041
-0.2924050951449258,-0.47887491779399505,0.7237652631061742
-0.2924050951449258,-0.47887491779399505,1.418768688249041
-0.2924050951449258,-0.47887491779399505,-1.7386160149908472
-0.2924050951449258,-0.47887491779399505,-1.0242581843681777
-0.2924050951449258,-0.47887491779399505,0.13530546768341914
-0.2924050951449258,-1.7386160149908472,0.7237652631061742
-0.2924050951449258,-1.7386160149908472,1.418768688249041
-0.2924050951449258,-1.7386160149908472,-1.0242581843681777
-0.2924050951449258,-1.7386160149908472,0.13530546768341914
-0.2924050951449258,-1.0242581843681777,0.7237652631061742
-0.2924050951449258,-1.0242581843681777,1.418768688249041
-0.2924050951449258,-1.0242581843681777,0.13530546768341914
-0.2924050951449258,0.13530546768341914,0.7237652631061742
-0.2924050951449258,0.13530546768341914,1.418768688249041
-0.2924050951449258,0.7237652631061742,1.418768688249041
1.6659245648870866,-0.47887491779399505,0.7237652631061742
1.6659245648870866,-0.47887491779399505,1.418768688249041
1.6659245648870866,-0.47887491779399505,-1.7386160149908472
1.6659245648870866,-0.47887491779399505,-1.0242581843681777
1.6659245648870866,-0.47887491779399505,0.13530546768341914
1.6659245648870866,-1.7386160149908472,0.7237652631061742
1.6659245648870866,-1.7386160149908472,1.418768688249041
1.6659245648870866,-1.7386160149908472,-1.0242581843681777
1.6659245648870866,-1.7386160149908472,0.13530546768341914
1.6659245648870866,-1.0242581843681777,0.7237652631061742
1.6659245648870866,-1.0242581843681777,1.418768688249041
1.6659245648870866,-1.0242581843681777,0.13530546768341914
1.6659245648870866,0.13530546768341914,0.7237652631061742
1.6659245648870866,0.13530546768341914,1.418768688249041
1.6659245648870866,0.7237652631061742,1.418768688249041
-0.47887491779399505,0.7237652631061742,1.418768688249041
-0.47887491779399505,-1.7386160149908472,0.7237652631061742
-0.47887491779399505,-1.7386160149908472,1.418768688249041
-0.47887491779399505,-1.7386160149908472,-1.0242581843681777
-0.47887491779399505,-1.7386160149908472,0.13530546768341914
-0.47887491779399505,-1.0242581843681777,0.7237652631061742
-0.47887491779399505,-1.0242581843681777,1.418768688249041
-0.47887491779399505,-1.0242581843681777,0.13530546768341914
-0.47887491779399505,0.13530546768341914,0.7237652631061742
-0.47887491779399505,0.13530546768341914,1.418768688249041
-1.7386160149908472,0.7237652631061742,1.418768688249041
-1.7386160149908472,-1.0242581843681777,0.7237652631061742
-1.7386160149908472,-1.0242581843681777,1.418768688249041
-1.7386160149908472,-1.0242581843681777,0.13530546768341914
-1.7386160149908472,0.13530546768341914,0.7237652631061742
-1.7386160149908472,0.13530546768341914,1.418768688249041
-1.0242581843681777,0.7237652631061742,1.418768688249041
-1.0242581843681777,0.13530546768341914,0.7237652631061742
-1.0242581843681777,0.13530546768341914,1.418768688249041
0.13530546768341914,0.7237652631061742,1.418768688249041
