0,1,2
-0.2287297933932907,-0.41856589961767066,-0.792885139494002
-0.2287297933932907,-0.41856589961767066,0.439814796138569
-0.2287297933932907,-0.41856589961767066,0.9026884864548801
-0.2287297933932907,-0.41856589961767066,-0.46575490697997857
-0.2287297933932907,-0.41856589961767066,0.4695874456155388
-0.2287297933932907,-0.41856589961767066,0.48859352405322387
-0.2287297933932907,-0.41856589961767066,0.575718328824048
-0.2287297933932907,-0.41856589961767066,0.970005943508382
-0.2287297933932907,-0.792885139494002,0.439814796138569
-0.2287297933932907,-0.792885139494002,0.9026884864548801
-0.2287297933932907,-0.792885139494002,-0.46575490697997857
-0.2287297933932907,-0.792885139494002,0.4695874456155388
-0.2287297933932907,-0.792885139494002,0.48859352405322387
-0.2287297933932907,-0.792885139494002,0.575718328824048
-0.2287297933932907,-0.792885139494002,0.970005943508382
-0.2287297933932907,0.439814796138569,0.9026884864548801
-0.2287297933932907,0.439814796138569,-0.46575490697997857
-0.2287297933932907,0.439814796138569,0.4695874456155388
-0.2287297933932907,0.439814796138569,0.48859352405322387
-0.2287297933932907,0.439814796138569,0.575718328824048
-0.2287297933932907,0.439814796138569,0.970005943508382
-0.2287297933932907,0.9026884864548801,0.575718328824048
-0.2287297933932907,0.9026884864548801,0.970005943508382
-0.2287297933932907,0.9026884864548801,-0.46575490697997857
-0.2287297933932907,0.9026884864548801,0.4695874456155388
-0.2287297933932907,0.9026884864548801,0.48859352405322387
-0.2287297933932907,-0.46575490697997857,0.575718328824048
-0.2287297933932907,-0.46575490697997857,0.970005943508382
-0.2287297933932907,-0.46575490697997857,0.4695874456155388
-0.2287297933932907,-0.46575490697997857,0.48859352405322387
-0.2287297933932907,0.4695874456155388,0.575718328824048
-0.2287297933932907,0.4695874456155388,0.970005943508382
-0.2287297933932907,0.4695874456155388,0.48859352405322387
-0.2287297933932907,0.48859352405322387,0.575718328824048
-0.2287297933932907,0.48859352405322387,0.970005943508382
-0.2287297933932907,0.575718328824048,0.970005943508382
-0.41856589961767066,-0.792885139494002,0.439814796138569
-0.41856589961767066,-0.792885139494002,0.9026884864548801
-0.41856589961767066,-0.792885139494002,-0.46575490697997857
-0.41856589961767066,-0.792885139494002,0.4695874456155388
-0.41856589961767066,-0.792885139494002,0.48859352405322387
-0.41856589961767066,-0.792885139494002,0.575718328824048
-0.41856589961767066,-0.792885139494002,0.970005943508382
-0.41856589961767066,0.439814796138569,0.9026884864548801
-0.41856589961767066,0.439814796138569,-0.46575490697997857
-0.41856589961767066,0.439814796138569,0.4695874456155388
-0.41856589961767066,0.439814796138569,0.48859352405322387
-0.41856589961767066,0.439814796138569,0.575718328824048
-0.41856589961767066,0.439814796138569,0.970005943508382
-0.41856589961767066,0.9026884864548801,0.575718328824048
-0.41856589961767066,0.9026884864548801,0.970005943508382
-0.41856589961767066,0.9026884864548801,-0.46575490697997857
-0.41856589961767066,0.9026884864548801,0.4695874456155388
-0.41856589961767066,0.9026884864548801,0.48859352405322387
-0.41856589961767066,-0.46575490697997857,0.575718328824048
-0.41856589961767066,-0.46575490697997857,0.970005943508382
-0.41856589961767066,-0.46575490697997857,0.4695874456155388
-0.41856589961767066,-0.46575490697997857,0.48859352405322387
-0.41856589961767066,0.4695874456155388,0.575718328824048
-0.41856589961767066,0.4695874456155388,0.970005943508382
-0.41856589961767066,0.4695874456155388,0.48859352405322387
-0.41856589961767066,0.48859352405322387,0.575718328824048
-0.41856589961767066,0.48859352405322387,0.970005943508382
-0.41856589961767066,0.575718328824048,0.970005943508382
-0.792885139494002,0.439814796138569,0.9026884864548801
-0.792885139494002,0.439814796138569,-0.46575490697997857
-0.792885139494002,0.439814796138569,0.4695874456155388
-0.792885139494002,0.439814796138569,0.48859352405322387
-0.792885139494002,0.439814796138569,0.575718328824048
-0.792885139494002,0.439814796138569,0.970005943508382
-0.792885139494002,0.9026884864548801,0.575718328824048
-0.792885139494002,0.9026884864548801,0.970005943508382
-0.792885139494002,0.9026884864548801,-0.46575490697997857
-0.792885139494002,0.9026884864548801,0.4695874456155388
-0.792885139494002,0.9026884864548801,0.48859352405322387
-0.792885139494002,-0.46575490697997857,0.575718328824048
-0.792885139494002,-0.46575490697997857,0.970005943508382
-0.792885139494002,-0.46575490697997857,0.4695874456155388
-0.792885139494002,-0.46575490697997857,0.48859352405322387
-0.792885139494002,0.4695874456155388,0.575718328824048
-0.792885139494002,0.4695874456155388,0.970005943508382
-0.792885139494002,0.4695874456155388,0.48859352405322387
-0.792885139494002,0.48859352405322387,0.575718328824048
-0.792885139494002,0.48859352405322387,0.970005943508382
-0.792885139494002,0.575718328824048,0.970005943508382
0.439814796138569,0.9026884864548801,0.575718328824048
0.439814796138569,0.9026884864548801,0.970005943508382
0.439814796138569,0.9026884864548801,-0.46575490697997857
0.439814796138569,0.9026884864548801,0.4695874456155388
0.439814796138569,0.9026884864548801,0.48859352405322387
0.439814796138569,-0.46575490697997857,0.575718328824048
0.439814796138569,-0.46575490697997857,0.970005943508382
0.439814796138569,-0.46575490697997857,0.4695874456155388
0.439814796138569,-0.46575490697997857,0.48859352405322387
0.439814796138569,0.4695874456155388,0.575718328824048
0.439814796138569,0.4695874456155388,0.970005943508382
0.439814796138569,0.4695874456155388,0.48859352405322387
0.439814796138569,0.48859352405322387,0.575718328824048
0.439814796138569,0.48859352405322387,0.970005943508382
0.439814796138569,0.575718328824048,0.970005943508382
0.9026884864548801,0.575718328824048,0.970005943508382
0.9026884864548801,-0.46575490697997857,0.575718328824048
0.9026884864548801,-0.46575490697997857,0.970005943508382
0.9026884864548801,-0.46575490697997857,0.4695874456155388
0.9026884864548801,-0.46575490697997857,0.48859352405322387
0.9026884864548801,0.4695874456155388,0.575718328824048
0.9026884864548801,0.4695874456155388,0.970005943508382
0.9026884864548801,0.4695874456155388,0.48859352405322387
0.9026884864548801,0.48859352405322387,0.575718328824048
0.9026884864548801,0.48859352405322387,0.970005943508382
-0.46575490697997857,0.575718328824048,0.970005943508382
-0.46575490697997857,0.4695874456155388,0.575718328824048
-0.46575490697997857,0.4695874456155388,0.970005943508382
-0.46575490697997857,0.4695874456155388,0.48859352405322387
-0.46575490697997857,0.48859352405322387,0.575718328824048
-0.46575490697997857,0.48859352405322387,0.970005943508382
0.4695874456155388,0.575718328824048,0.970005943508382
0.4695874456155388,0.48859352405322387,0.575718328824048
0.4695874456155388,0.48859352405322387,0.970005943508382
0.48859352405322387,0.575718328824048,0.970005943508382
