0,1,2
0.11917127375915107,-0.2979334278778909,0.6335626967657031
0.11917127375915107,-0.2979334278778909,-0.6857253946453811
0.11917127375915107,-0.2979334278778909,0.7987242738077095
0.11917127375915107,-0.2979334278778909,1.393798527140737
0.11917127375915107,-0.2979334278778909,0.6569964754831101
0.11917127375915107,-0.2979334278778909,-0.6365466084979334
0.11917127375915107,-0.2979334278778909,0.17522348608718744
0.11917127375915107,-0.2979334278778909,0.28781112990909424
0.11917127375915107,0.6335626967657031,-0.6857253946453811
0.11917127375915107,0.6335626967657031,0.7987242738077095
0.11917127375915107,0.6335626967657031,1.393798527140737
0.11917127375915107,0.6335626967657031,0.6569964754831101
0.11917127375915107,0.6335626967657031,-0.6365466084979334
0.11917127375915107,0.6335626967657031,0.17522348608718744
0.11917127375915107,0.6335626967657031,0.28781112990909424
0.11917127375915107,-0.6857253946453811,0.7987242738077095
0.11917127375915107,-0.6857253946453811,1.393798527140737
0.11917127375915107,-0.6857253946453811,0.6569964754831101
0.11917127375915107,-0.6857253946453811,-0.6365466084979334
0.11917127375915107,-0.6857253946453811,0.17522348608718744
0.11917127375915107,-0.6857253946453811,0.28781112990909424
0.11917127375915107,0.7987242738077095,0.17522348608718744
0.11917127375915107,0.7987242738077095,0.28781112990909424
0.11917127375915107,0.7987242738077095,1.393798527140737
0.11917127375915107,0.7987242738077095,0.6569964754831101
0.11917127375915107,0.7987242738077095,-0.6365466084979334
0.11917127375915107,1.393798527140737,0.17522348608718744
0.11917127375915107,1.393798527140737,0.28781112990909424
0.11917127375915107,1.393798527140737,0.6569964754831101
0.11917127375915107,1.393798527140737,-0.6365466084979334
0.11917127375915107,0.6569964754831101,0.17522348608718744
0.11917127375915107,0.6569964754831101,0.28781112990909424
0.11917127375915107,0.6569964754831101,-0.6365466084979334
0.11917127375915107,-0.6365466084979334,0.17522348608718744
0.11917127375915107,-0.6365466084979334,0.28781112990909424
0.11917127375915107,0.17522348608718744,0.28781112990909424
-0.2979334278778909,0.6335626967657031,-0.6857253946453811
-0.2979334278778909,0.6335626967657031,0.7987242738077095
-0.2979334278778909,0.6335626967657031,1.393798527140737
-0.2979334278778909,0.6335626967657031,0.6569964754831101
-0.2979334278778909,0.6335626967657031,-0.6365466084979334
-0.2979334278778909,0.6335626967657031,0.17522348608718744
-0.2979334278778909,0.6335626967657031,0.28781112990909424
-0.2979334278778909,-0.6857253946453811,0.7987242738077095
-0.2979334278778909,-0.6857253946453811,1.393798527140737
-0.2979334278778909,-0.6857253946453811,0.6569964754831101
-0.2979334278778909,-0.6857253946453811,-0.6365466084979334
-0.2979334278778909,-0.6857253946453811,0.17522348608718744
-0.2979334278778909,-0.6857253946453811,0.28781112990909424
-0.2979334278778909,0.7987242738077095,0.17522348608718744
-0.2979334278778909,0.7987242738077095,0.28781112990909424
-0.2979334278778909,0.7987242738077095,1.393798527140737
-0.2979334278778909,0.7987242738077095,0.6569964754831101
-0.2979334278778909,0.7987242738077095,-0.6365466084979334
-0.2979334278778909,1.393798527140737,0.17522348608718744
-0.2979334278778909,1.393798527140737,0.28781112990909424
-0.2979334278778909,1.393798527140737,0.6569964754831101
-0.2979334278778909,1.393798527140737,-0.6365466084979334
-0.2979334278778909,0.6569964754831101,0.17522348608718744
-0.2979334278778909,0.6569964754831101,0.28781112990909424
-0.2979334278778909,0.6569964754831101,-0.6365466084979334
-0.2979334278778909,-0.6365466084979334,0.17522348608718744
-0.2979334278778909,-0.6365466084979334,0.28781112990909424
-0.2979334278778909,0.17522348608718744,0.28781112990909424
0.6335626967657031,-0.6857253946453811,0.7987242738077095
0.6335626967657031,-0.6857253946453811,1.393798527140737
0.6335626967657031,-0.6857253946453811,0.6569964754831101
0.6335626967657031,-0.6857253946453811,-0.6365466084979334
0.6335626967657031,-0.6857253946453811,0.17522348608718744
0.6335626967657031,-0.6857253946453811,0.28781112990909424
0.6335626967657031,0.7987242738077095,0.17522348608718744
0.6335626967657031,0.7987242738077095,0.28781112990909424
0.6335626967657031,0.7987242738077095,1.393798527140737
0.6335626967657031,0.7987242738077095,0.6569964754831101
0.6335626967657031,0.7987242738077095,-0.6365466084979334
0.6335626967657031,1.393798527140737,0.17522348608718744
0.6335626967657031,1.393798527140737,0.28781112990909424
0.6335626967657031,1.393798527140737,0.6569964754831101
0.6335626967657031,1.393798527140737,-0.6365466084979334
0.6335626967657031,0.6569964754831101,0.17522348608718744
0.6335626967657031,0.6569964754831101,0.28781112990909424
0.6335626967657031,0.6569964754831101,-0.6365466084979334
0.6335626967657031,-0.6365466084979334,0.17522348608718744
0.6335626967657031,-0.6365466084979334,0.28781112990909424
0.6335626967657031,0.17522348608718744,0.28781112990909424
-0.6857253946453811,0.7987242738077095,0.17522348608718744
-0.6857253946453811,0.7987242738077095,0.28781112990909424
-0.6857253946453811,0.7987242738077095,1.393798527140737
-0.6857253946453811,0.7987242738077095,0.6569964754831101
-0.6857253946453811,0.7987242738077095,-0.6365466084979334
-0.6857253946453811,1.393798527140737,0.17522348608718744
-0.6857253946453811,1.393798527140737,0.28781112990909424
-0.6857253946453811,1.393798527140737,0.6569964754831101
-0.6857253946453811,1.393798527140737,-0.6365466084979334
-0.6857253946453811,0.6569964754831101,0.17522348608718744
-0.6857253946453811,0.6569964754831101,0.28781112990909424
-0.6857253946453811,0.6569964754831101,-0.6365466084979334
-0.6857253946453811,-0.6365466084979334,0.17522348608718744
-0.6857253946453811,-0.6365466084979334,0.28781112990909424
-0.6857253946453811,0.17522348608718744,0.28781112990909424
0.7987242738077095,0.17522348608718744,0.28781112990909424
0.7987242738077095,1.393798527140737,0.17522348608718744
0.7987242738077095,1.393798527140737,0.28781112990909424
0.7987242738077095,1.393798527140737,0.6569964754831101
0.7987242738077095,1.393798527140737,-0.6365466084979334
0.7987242738077095,0.6569964754831101,0.17522348608718744
0.7987242738077095,0.6569964754831101,0.28781112990909424
0.7987242738077095,0.6569964754831101,-0.6365466084979334
0.7987242738077095,-0.6365466084979334,0.17522348608718744
0.7987242738077095,-0.6365466084979334,0.28781112990909424
1.393798527140737,0.17522348608718744,0.28781112990909424
1.393798527140737,0.6569964754831101,0.17522348608718744
1.393798527140737,0.6569964754831101,0.28781112990909424
1.393798527140737,0.6569964754831101,-0.6365466084979334
1.393798527140737,-0.6365466084979334,0.17522348608718744
1.393798527140737,-0.6365466084979334,0.28781112990909424
0.6569964754831101,0.17522348608718744,0.28781112990909424
0.6569964754831101,-0.6365466084979334,0.17522348608718744
0.6569964754831101,-0.6365466084979334,0.28781112990909424
-0.6365466084979334,0.17522348608718744,0.28781112990909424
