0,1,2
0.5911246714642298,-0.3478555722257579,0.1309008686486324
0.5911246714642298,-0.3478555722257579,0.49968975422296485
0.5911246714642298,-0.3478555722257579,-2.1034750746436806
0.5911246714642298,-0.3478555722257579,-1.2523399258784913
0.5911246714642298,-0.3478555722257579,-0.6637283628121564
0.5911246714642298,-0.3478555722257579,-0.3150685748855747
0.5911246714642298,-0.3478555722257579,0.5314173147391646
0.5911246714642298,-0.3478555722257579,0.27383809088685807
0.5911246714642298,0.1309008686486324,0.49968975422296485
0.5911246714642298,0.1309008686486324,-2.1034750746436806
0.5911246714642298,0.1309008686486324,-1.2523399258784913
0.5911246714642298,0.1309008686486324,-0.6637283628121564
0.5911246714642298,0.1309008686486324,-0.3150685748855747
0.5911246714642298,0.1309008686486324,0.5314173147391646
0.5911246714642298,0.1309008686486324,0.27383809088685807
0.5911246714642298,0.49968975422296485,-2.1034750746436806
0.5911246714642298,0.49968975422296485,-1.2523399258784913
0.5911246714642298,0.49968975422296485,-0.6637283628121564
0.5911246714642298,0.49968975422296485,-0.3150685748855747
0.5911246714642298,0.49968975422296485,0.5314173147391646
0.5911246714642298,0.49968975422296485,0.27383809088685807
0.5911246714642298,-2.1034750746436806,0.5314173147391646
0.5911246714642298,-2.1034750746436806,0.27383809088685807
0.5911246714642298,-2.1034750746436806,-1.2523399258784913
0.5911246714642298,-2.1034750746436806,-0.6637283628121564
0.5911246714642298,-2.1034750746436806,-0.3150685748855747
0.5911246714642298,-1.2523399258784913,0.5314173147391646
0.5911246714642298,-1.2523399258784913,0.27383809088685807
0.5911246714642298,-1.2523399258784913,-0.6637283628121564
0.5911246714642298,-1.2523399258784913,-0.3150685748855747
0.5911246714642298,-0.6637283628121564,0.5314173147391646
0.5911246714642298,-0.6637283628121564,0.27383809088685807
0.5911246714642298,-0.6637283628121564,-0.3150685748855747
0.5911246714642298,-0.3150685748855747,0.5314173147391646
0.5911246714642298,-0.3150685748855747,0.27383809088685807
0.5911246714642298,0.5314173147391646,0.27383809088685807
-0.3478555722257579,0.1309008686486324,0.49968975422296485
-0.3478555722257579,0.1309008686486324,-2.1034750746436806
-0.3478555722257579,0.1309008686486324,-1.2523399258784913
-0.3478555722257579,0.1309008686486324,-0.6637283628121564
-0.3478555722257579,0.1309008686486324,-0.3150685748855747
-0.3478555722257579,0.1309008686486324,0.5314173147391646
-0.3478555722257579,0.1309008686486324,0.27383809088685807
-0.3478555722257579,0.49968975422296485,-2.1034750746436806
-0.3478555722257579,0.49968975422296485,-1.2523399258784913
-0.3478555722257579,0.49968975422296485,-0.6637283628121564
-0.3478555722257579,0.49968975422296485,-0.3150685748855747
-0.3478555722257579,0.49968975422296485,0.5314173147391646
-0.3478555722257579,0.49968975422296485,0.27383809088685807
-0.3478555722257579,-2.1034750746436806,0.5314173147391646
-0.3478555722257579,-2.1034750746436806,0.27383809088685807
-0.3478555722257579,-2.1034750746436806,-1.2523399258784913
-0.3478555722257579,-2.1034750746436806,-0.6637283628121564
-0.3478555722257579,-2.1034750746436806,-0.3150685748855747
-0.3478555722257579,-1.2523399258784913,0.5314173147391646
-0.3478555722257579,-1.2523399258784913,0.27383809088685807
-0.3478555722257579,-1.2523399258784913,-0.6637283628121564
-0.3478555722257579,-1.2523399258784913,-0.3150685748855747
-0.3478555722257579,-0.6637283628121564,0.5314173147391646
-0.3478555722257579,-0.6637283628121564,0.27383809088685807
-0.3478555722257579,-0.6637283628121564,-0.3150685748855747
-0.3478555722257579,-0.3150685748855747,0.5314173147391646
-0.3478555722257579,-0.3150685748855747,0.27383809088685807
-0.3478555722257579,0.5314173147391646,0.27383809088685807
0.1309008686486324,0.49968975422296485,-2.1034750746436806
0.1309008686486324,0.49968975422296485,-1.2523399258784913
0.1309008686486324,0.49968975422296485,-0.6637283628121564
0.1309008686486324,0.49968975422296485,-0.3150685748855747
0.1309008686486324,0.49968975422296485,0.5314173147391646
0.1309008686486324,0.49968975422296485,0.27383809088685807
0.1309008686486324,-2.1034750746436806,0.5314173147391646
0.1309008686486324,-2.1034750746436806,0.27383809088685807
0.1309008686486324,-2.1034750746436806,-1.2523399258784913
0.1309008686486324,-2.1034750746436806,-0.6637283628121564
0.1309008686486324,-2.1034750746436806,-0.3150685748855747
0.1309008686486324,-1.2523399258784913,0.5314173147391646
0.1309008686486324,-1.2523399258784913,0.27383809088685807
0.1309008686486324,-1.2523399258784913,-0.6637283628121564
0.1309008686486324,-1.2523399258784913,-0.3150685748855747
0.1309008686486324,-0.6637283628121564,0.5314173147391646
0.1309008686486324,-0.6637283628121564,0.27383809088685807
0.1309008686486324,-0.6637283628121564,-0.3150685748855747
0.1309008686486324,-0.3150685748855747,0.5314173147391646
0.1309008686486324,-0.3150685748855747,0.27383809088685807
0.1309008686486324,0.5314173147391646,0.27383809088685807
0.49968975422296485,-2.1034750746436806,0.5314173147391646
0.49968975422296485,-2.1034750746436806,0.27383809088685807
0.49968975422296485,-2.1034750746436806,-1.2523399258784913
0.49968975422296485,-2.1034750746436806,-0.6637283628121564
0.49968975422296485,-2.1034750746436806,-0.3150685748855747
0.49968975422296485,-1.2523399258784913,0.5314173147391646
0.49968975422296485,-1.2523399258784913,0.27383809088685807
0.49968975422296485,-1.2523399258784913,-0.6637283628121564
0.49968975422296485,-1.2523399258784913,-0.3150685748855747
0.49968975422296485,-0.6637283628121564,0.5314173147391646
0.49968975422296485,-0.6637283628121564,0.27383809088685807
0.49968975422296485,-0.6637283628121564,-0.3150685748855747
0.49968975422296485,-0.3150685748855747,0.5314173147391646
0.49968975422296485,-0.3150685748855747,0.27383809088685807
0.49968975422296485,0.5314173147391646,0.27383809088685807
-2.1034750746436806,0.5314173147391646,0.27383809088685807
-2.1034750746436806,-1.2523399258784913,0.5314173147391646
-2.1034750746436806,-1.2523399258784913,0.27383809088685807
-2.1034750746436806,-1.2523399258784913,-0.6637283628121564
-2.1034750746436806,-1.2523399258784913,-0.3150685748855747
-2.1034750746436806,-0.6637283628121564,0.5314173147391646
-2.1034750746436806,-0.6637283628121564,0.27383809088685807
-2.1034750746436806,-0.6637283628121564,-0.3150685748855747
-2.1034750746436806,-0.3150685748855747,0.5314173147391646
-2.1034750746436806,-0.3150685748855747,0.27383809088685807
-1.2523399258784913,0.5314173147391646,0.27383809088685807
-1.2523399258784913,-0.6637283628121564,0.5314173147391646
-1.2523399258784913,-0.6637283628121564,0.27383809088685807
-1.2523399258784913,-0.6637283628121564,-0.3150685748855747
-1.2523399258784913,-0.3150685748855747,0.5314173147391646
-1.2523399258784913,-0.3150685748855747,0.27383809088685807
-0.6637283628121564,0.5314173147391646,0.27383809088685807
-0.6637283628121564,-0.3150685748855747,0.5314173147391646
-0.6637283628121564,-0.3150685748855747,0.27383809088685807
-0.3150685748855747,0.5314173147391646,0.27383809088685807
