0,1,2
2.1935627424836297,0.415180403946062,0.5979095309690086
2.1935627424836297,0.415180403946062,-0.295753518428766
2.1935627424836297,0.415180403946062,0.7641244158382855
2.1935627424836297,0.415180403946062,-0.7995501582973681
2.1935627424836297,0.415180403946062,1.11006005915189
2.1935627424836297,0.415180403946062,0.7357914679525849
2.1935627424836297,0.415180403946062,0.9230244040273321
2.1935627424836297,0.415180403946062,0.2942955976599829
2.1935627424836297,0.5979095309690086,-0.295753518428766
2.1935627424836297,0.5979095309690086,0.7641244158382855
2.1935627424836297,0.5979095309690086,-0.7995501582973681
2.1935627424836297,0.5979095309690086,1.11006005915189
2.1935627424836297,0.5979095309690086,0.7357914679525849
2.1935627424836297,0.5979095309690086,0.9230244040273321
2.1935627424836297,0.5979095309690086,0.2942955976599829
2.1935627424836297,-0.295753518428766,0.7641244158382855
2.1935627424836297,-0.295753518428766,-0.7995501582973681
2.1935627424836297,-0.295753518428766,1.11006005915189
2.1935627424836297,-0.295753518428766,0.7357914679525849
2.1935627424836297,-0.295753518428766,0.9230244040273321
2.1935627424836297,-0.295753518428766,0.2942955976599829
2.1935627424836297,0.7641244158382855,0.9230244040273321
2.1935627424836297,0.7641244158382855,0.2942955976599829
2.1935627424836297,0.7641244158382855,-0.7995501582973681
2.1935627424836297,0.7641244158382855,1.11006005915189
2.1935627424836297,0.7641244158382855,0.7357914679525849
2.1935627424836297,-0.7995501582973681,0.9230244040273321
2.1935627424836297,-0.7995501582973681,0.2942955976599829
2.1935627424836297,-0.7995501582973681,1.11006005915189
2.1935627424836297,-0.7995501582973681,0.7357914679525849
2.1935627424836297,1.11006005915189,0.9230244040273321
2.1935627424836297,1.11006005915189,0.2942955976599829
2.1935627424836297,1.11006005915189,0.7357914679525849
2.1935627424836297,0.7357914679525849,0.9230244040273321
2.1935627424836297,0.7357914679525849,0.2942955976599829
2.1935627424836297,0.9230244040273321,0.2942955976599829
0.415180403946062,0.5979095309690086,-0.295753518428766
0.415180403946062,0.5979095309690086,0.7641244158382855
0.415180403946062,0.5979095309690086,-0.7995501582973681
0.415180403946062,0.5979095309690086,1.11006005915189
0.415180403946062,0.5979095309690086,0.7357914679525849
0.415180403946062,0.5979095309690086,0.9230244040273321
0.415180403946062,0.5979095309690086,0.2942955976599829
0.415180403946062,-0.295753518428766,0.7641244158382855
0.415180403946062,-0.295753518428766,-0.7995501582973681
0.415180403946062,-0.295753518428766,1.11006005915189
0.415180403946062,-0.295753518428766,0.7357914679525849
0.415180403946062,-0.295753518428766,0.9230244040273321
0.415180403946062,-0.295753518428766,0.2942955976599829
0.415180403946062,0.7641244158382855,0.9230244040273321
0.415180403946062,0.7641244158382855,0.2942955976599829
0.415180403946062,0.7641244158382855,-0.7995501582973681
0.415180403946062,0.7641244158382855,1.11006005915189
0.415180403946062,0.7641244158382855,0.7357914679525849
0.415180403946062,-0.7995501582973681,0.9230244040273321
0.415180403946062,-0.7995501582973681,0.2942955976599829
0.415180403946062,-0.7995501582973681,1.11006005915189
0.415180403946062,-0.7995501582973681,0.7357914679525849
0.415180403946062,1.11006005915189,0.9230244040273321
0.415180403946062,1.11006005915189,0.2942955976599829
0.415180403946062,1.11006005915189,0.7357914679525849
0.415180403946062,0.7357914679525849,0.9230244040273321
0.415180403946062,0.7357914679525849,0.2942955976599829
0.415180403946062,0.9230244040273321,0.2942955976599829
0.5979095309690086,-0.295753518428766,0.7641244158382855
0.5979095309690086,-0.295753518428766,-0.7995501582973681
0.5979095309690086,-0.295753518428766,1.11006005915189
0.5979095309690086,-0.295753518428766,0.7357914679525849
0.5979095309690086,-0.295753518428766,0.9230244040273321
0.5979095309690086,-0.295753518428766,0.2942955976599829
0.5979095309690086,0.7641244158382855,0.9230244040273321
0.5979095309690086,0.7641244158382855,0.2942955976599829
0.5979095309690086,0.7641244158382855,-0.7995501582973681
0.5979095309690086,0.7641244158382855,1.11006005915189
0.5979095309690086,0.7641244158382855,0.7357914679525849
0.5979095309690086,-0.7995501582973681,0.9230244040273321
0.5979095309690086,-0.7995501582973681,0.2942955976599829
0.5979095309690086,-0.7995501582973681,1.11006005915189
0.5979095309690086,-0.7995501582973681,0.7357914679525849
0.5979095309690086,1.11006005915189,0.9230244040273321
0.5979095309690086,1.11006005915189,0.2942955976599829
0.5979095309690086,1.11006005915189,0.7357914679525849
0.5979095309690086,0.7357914679525849,0.9230244040273321
0.5979095309690086,0.7357914679525849,0.2942955976599829
0.5979095309690086,0.9230244040273321,0.2942955976599829
-0.295753518428766,0.7641244158382855,0.9230244040273321
-0.295753518428766,0.7641244158382855,0.2942955976599829
-0.295753518428766,0.7641244158382855,-0.7995501582973681
-0.295753518428766,0.7641244158382855,1.11006005915189
-0.295753518428766,0.7641244158382855,0.7357914679525849
-0.295753518428766,-0.7995501582973681,0.9230244040273321
-0.295753518428766,-0.7995501582973681,0.2942955976599829
-0.295753518428766,-0.7995501582973681,1.11006005915189
-0.295753518428766,-0.7995501582973681,0.7357914679525849
-0.295753518428766,1.11006005915189,0.9230244040273321
-0.295753518428766,1.11006005915189,0.2942955976599829
-0.295753518428766,1.11006005915189,0.7357914679525849
-0.295753518428766,0.7357914679525849,0.9230244040273321
-0.295753518428766,0.7357914679525849,0.2942955976599829
-0.295753518428766,0.9230244040273321,0.2942955976599829
0.7641244158382855,0.9230244040273321,0.2942955976599829
0.7641244158382855,-0.7995501582973681,0.9230244040273321
0.7641244158382855,-0.7995501582973681,0.2942955976599829
0.7641244158382855,-0.7995501582973681,1.11006005915189
0.7641244158382855,-0.7995501582973681,0.7357914679525849
0.7641244158382855,1.11006005915189,0.9230244040273321
0.7641244158382855,1.11006005915189,0.2942955976599829
0.7641244158382855,1.11006005915189,0.7357914679525849
0.7641244158382855,0.7357914679525849,0.9230244040273321
0.7641244158382855,0.7357914679525849,0.2942955976599829
-0.7995501582973681,0.9230244040273321,0.2942955976599829
-0.7995501582973681,1.11006005915189,0.9230244040273321
-0.7995501582973681,1.11006005915189,0.2942955976599829
-0.7995501582973681,1.11006005915189,0.7357914679525849
-0.7995501582973681,0.7357914679525849,0.9230244040273321
-0.7995501582973681,0.7357914679525849,0.2942955976599829
1.11006005915189,0.9230244040273321,0.2942955976599829
1.11006005915189,0.7357914679525849,0.9230244040273321
1.11006005915189,0.7357914679525849,0.2942955976599829
0.7357914679525849,0.9230244040273321,0.2942955976599829
