0,1,2
-0.22922980352371822,1.5553106519945277,-1.1682283052901474
-0.22922980352371822,1.5553106519945277,-0.8633107654061153
-0.22922980352371822,1.5553106519945277,1.0120371842864928
-0.22922980352371822,1.5553106519945277,0.190402104657085
-0.22922980352371822,1.5553106519945277,0.17432169202095843
-0.22922980352371822,1.5553106519945277,0.005777389669870173
-0.22922980352371822,1.5553106519945277,-2.2599416388612528
-0.22922980352371822,1.5553106519945277,0.8156607049210804
-0.22922980352371822,-1.1682283052901474,-0.8633107654061153
-0.22922980352371822,-1.1682283052901474,1.0120371842864928
-0.22922980352371822,-1.1682283052901474,0.190402104657085
-0.22922980352371822,-1.1682283052901474,0.17432169202095843
-0.22922980352371822,-1.1682283052901474,0.005777389669870173
-0.22922980352371822,-1.1682283052901474,-2.2599416388612528
-0.22922980352371822,-1.1682283052901474,0.8156607049210804
-0.22922980352371822,-0.8633107654061153,1.0120371842864928
-0.22922980352371822,-0.8633107654061153,0.190402104657085
-0.22922980352371822,-0.8633107654061153,0.17432169202095843
-0.22922980352371822,-0.8633107654061153,0.005777389669870173
-0.22922980352371822,-0.8633107654061153,-2.2599416388612528
-0.22922980352371822,-0.8633107654061153,0.8156607049210804
-0.22922980352371822,1.0120371842864928,-2.2599416388612528
-0.22922980352371822,1.0120371842864928,0.8156607049210804
-0.22922980352371822,1.0120371842864928,0.190402104657085
-0.22922980352371822,1.0120371842864928,0.17432169202095843
-0.22922980352371822,1.0120371842864928,0.005777389669870173
-0.22922980352371822,0.190402104657085,-2.2599416388612528
-0.22922980352371822,0.190402104657085,0.8156607049210804
-0.22922980352371822,0.190402104657085,0.17432169202095843
-0.22922980352371822,0.190402104657085,0.005777389669870173
-0.22922980352371822,0.17432169202095843,-2.2599416388612528
-0.22922980352371822,0.17432169202095843,0.8156607049210804
-0.22922980352371822,0.17432169202095843,0.005777389669870173
-0.22922980352371822,0.005777389669870173,-2.2599416388612528
-0.22922980352371822,0.005777389669870173,0.8156607049210804
-0.22922980352371822,-2.2599416388612528,0.8156607049210804
1.5553106519945277,-1.1682283052901474,-0.8633107654061153
1.5553106519945277,-1.1682283052901474,1.0120371842864928
1.5553106519945277,-1.1682283052901474,0.190402104657085
1.5553106519945277,-1.1682283052901474,0.17432169202095843
1.5553106519945277,-1.1682283052901474,0.005777389669870173
1.5553106519945277,-1.1682283052901474,-2.2599416388612528
1.5553106519945277,-1.1682283052901474,0.8156607049210804
1.5553106519945277,-0.8633107654061153,1.0120371842864928
1.5553106519945277,-0.8633107654061153,0.190402104657085
1.5553106519945277,-0.8633107654061153,0.17432169202095843
1.5553106519945277,-0.8633107654061153,0.005777389669870173
1.5553106519945277,-0.8633107654061153,-2.2599416388612528
1.5553106519945277,-0.8633107654061153,0.8156607049210804
1.5553106519945277,1.0120371842864928,-2.2599416388612528
1.5553106519945277,1.0120371842864928,0.8156607049210804
1.5553106519945277,1.0120371842864928,0.190402104657085
1.5553106519945277,1.0120371842864928,0.17432169202095843
1.5553106519945277,1.0120371842864928,0.005777389669870173
1.5553106519945277,0.190402104657085,-2.2599416388612528
1.5553106519945277,0.190402104657085,0.8156607049210804
1.5553106519945277,0.190402104657085,0.17432169202095843
1.5553106519945277,0.190402104657085,0.005777389669870173
1.5553106519945277,0.17432169202095843,-2.2599416388612528
1.5553106519945277,0.17432169202095843,0.8156607049210804
1.5553106519945277,0.17432169202095843,0.005777389669870173
1.5553106519945277,0.005777389669870173,-2.2599416388612528
1.5553106519945277,0.005777389669870173,0.8156607049210804
1.5553106519945277,-2.2599416388612528,0.8156607049210804
-1.1682283052901474,-0.8633107654061153,1.0120371842864928
-1.1682283052901474,-0.8633107654061153,0.190402104657085
-1.1682283052901474,-0.8633107654061153,0.17432169202095843
-1.1682283052901474,-0.8633107654061153,0.005777389669870173
-1.1682283052901474,-0.8633107654061153,-2.2599416388612528
-1.1682283052901474,-0.8633107654061153,0.8156607049210804
-1.1682283052901474,1.0120371842864928,-2.2599416388612528
-1.1682283052901474,1.0120371842864928,0.8156607049210804
-1.1682283052901474,1.0120371842864928,0.190402104657085
-1.1682283052901474,1.0120371842864928,0.17432169202095843
-1.1682283052901474,1.0120371842864928,0.005777389669870173
-1.1682283052901474,0.190402104657085,-2.2599416388612528
-1.1682283052901474,0.190402104657085,0.8156607049210804
-1.1682283052901474,0.190402104657085,0.17432169202095843
-1.1682283052901474,0.190402104657085,0.005777389669870173
-1.1682283052901474,0.17432169202095843,-2.2599416388612528
-1.1682283052901474,0.17432169202095843,0.8156607049210804
-1.1682283052901474,0.17432169202095843,0.005777389669870173
-1.1682283052901474,0.005777389669870173,-2.2599416388612528
-1.1682283052901474,0.005777389669870173,0.8156607049210804
-1.1682283052901474,-2.2599416388612528,0.8156607049210804
-0.8633107654061153,1.0120371842864928,-2.2599416388612528
-0.8633107654061153,1.0120371842864928,0.8156607049210804
-0.8633107654061153,1.0120371842864928,0.190402104657085
-0.8633107654061153,1.0120371842864928,0.17432169202095843
-0.8633107654061153,1.0120371842864928,0.005777389669870173
-0.8633107654061153,0.190402104657085,-2.2599416388612528
-0.8633107654061153,0.190402104657085,0.8156607049210804
-0.8633107654061153,0.190402104657085,0.17432169202095843
-0.8633107654061153,0.190402104657085,0.005777389669870173
-0.8633107654061153,0.17432169202095843,-2.2599416388612528
-0.8633107654061153,0.17432169202095843,0.8156607049210804
-0.8633107654061153,0.17432169202095843,0.005777389669870173
-0.8633107654061153,0.005777389669870173,-2.2599416388612528
-0.8633107654061153,0.005777389669870173,0.8156607049210804
-0.8633107654061153,-2.2599416388612528,0.8156607049210804
1.0120371842864928,-2.2599416388612528,0.8156607049210804
1.0120371842864928,0.190402104657085,-2.2599416388612528
1.0120371842864928,0.190402104657085,0.8156607049210804
1.0120371842864928,0.190402104657085,0.17432169202095843
1.0120371842864928,0.190402104657085,0.005777389669870173
1.0120371842864928,0.17432169202095843,-2.2599416388612528
1.0120371842864928,0.17432169202095843,0.8156607049210804
1.0120371842864928,0.17432169202095843,0.005777389669870173
1.0120371842864928,0.005777389669870173,-2.2599416388612528
1.0120371842864928,0.005777389669870173,0.8156607049210804
0.190402104657085,-2.2599416388612528,0.8156607049210804
0.190402104657085,0.17432169202095843,-2.2599416388612528
0.190402104657085,0.17432169202095843,0.8156607049210804
0.190402104657085,0.17432169202095843,0.005777389669870173
0.190402104657085,0.005777389669870173,-2.2599416388612528
0.190402104657085,0.005777389669870173,0.8156607049210804
0.17432169202095843,-2.2599416388612528,0.8156607049210804
0.17432169202095843,0.005777389669870173,-2.2599416388612528
0.17432169202095843,0.005777389669870173,0.8156607049210804
0.005777389669870173,-2.2599416388612528,0.8156607049210804
