0,1,2
0.9883743316617012,1.4612315328667056,0.41215087683095386
0.9883743316617012,1.4612315328667056,1.4324800495829826
0.9883743316617012,1.4612315328667056,0.6270446045261721
0.9883743316617012,1.4612315328667056,0.5354908969630913
0.9883743316617012,1.4612315328667056,0.04726765073979781
0.9883743316617012,1.4612315328667056,0.48325391655146643
0.9883743316617012,1.4612315328667056,-0.3086738096958119
0.9883743316617012,1.4612315328667056,-0.0056494935626052465
0.9883743316617012,0.41215087683095386,1.4324800495829826
0.9883743316617012,0.41215087683095386,0.6270446045261721
0.9883743316617012,0.41215087683095386,0.5354908969630913
0.9883743316617012,0.41215087683095386,0.04726765073979781
0.9883743316617012,0.41215087683095386,0.48325391655146643
0.9883743316617012,0.41215087683095386,-0.3086738096958119
0.9883743316617012,0.41215087683095386,-0.0056494935626052465
0.9883743316617012,1.4324800495829826,0.6270446045261721
0.9883743316617012,1.4324800495829826,0.5354908969630913
0.9883743316617012,1.4324800495829826,0.04726765073979781
0.9883743316617012,1.4324800495829826,0.48325391655146643
0.9883743316617012,1.4324800495829826,-0.3086738096958119
0.9883743316617012,1.4324800495829826,-0.0056494935626052465
0.9883743316617012,0.6270446045261721,-0.3086738096958119
0.9883743316617012,0.6270446045261721,-0.0056494935626052465
0.9883743316617012,0.6270446045261721,0.5354908969630913
0.9883743316617012,0.6270446045261721,0.04726765073979781
0.9883743316617012,0.6270446045261721,0.48325391655146643
0.9883743316617012,0.5354908969630913,-0.3086738096958119
0.9883743316617012,0.5354908969630913,-0.0056494935626052465
0.9883743316617012,0.5354908969630913,0.04726765073979781
0.9883743316617012,0.5354908969630913,0.48325391655146643
0.9883743316617012,0.04726765073979781,-0.3086738096958119
0.9883743316617012,0.04726765073979781,-0.0056494935626052465
0.9883743316617012,0.04726765073979781,0.48325391655146643
0.9883743316617012,0.48325391655146643,-0.3086738096958119
0.9883743316617012,0.48325391655146643,-0.0056494935626052465
0.9883743316617012,-0.3086738096958119,-0.0056494935626052465
1.4612315328667056,0.41215087683095386,1.4324800495829826
1.4612315328667056,0.41215087683095386,0.6270446045261721
1.4612315328667056,0.41215087683095386,0.5354908969630913
1.4612315328667056,0.41215087683095386,0.04726765073979781
1.4612315328667056,0.41215087683095386,0.48325391655146643
1.4612315328667056,0.41215087683095386,-0.3086738096958119
1.4612315328667056,0.41215087683095386,-0.0056494935626052465
1.4612315328667056,1.4324800495829826,0.6270446045261721
1.4612315328667056,1.4324800495829826,0.5354908969630913
1.4612315328667056,1.4324800495829826,0.04726765073979781
1.4612315328667056,1.4324800495829826,0.48325391655146643
1.4612315328667056,1.4324800495829826,-0.3086738096958119
1.4612315328667056,1.4324800495829826,-0.0056494935626052465
1.4612315328667056,0.6270446045261721,-0.3086738096958119
1.4612315328667056,0.6270446045261721,-0.0056494935626052465
1.4612315328667056,0.6270446045261721,0.5354908969630913
1.4612315328667056,0.6270446045261721,0.04726765073979781
1.4612315328667056,0.6270446045261721,0.48325391655146643
1.4612315328667056,0.5354908969630913,-0.3086738096958119
1.4612315328667056,0.5354908969630913,-0.0056494935626052465
1.4612315328667056,0.5354908969630913,0.04726765073979781
1.4612315328667056,0.5354908969630913,0.48325391655146643
1.4612315328667056,0.04726765073979781,-0.3086738096958119
1.4612315328667056,0.04726765073979781,-0.0056494935626052465
1.4612315328667056,0.04726765073979781,0.48325391655146643
1.4612315328667056,0.48325391655146643,-0.3086738096958119
1.4612315328667056,0.48325391655146643,-0.0056494935626052465
1.4612315328667056,-0.3086738096958119,-0.0056494935626052465
0.41215087683095386,1.4324800495829826,0.6270446045261721
0.41215087683095386,1.4324800495829826,0.5354908969630913
0.41215087683095386,1.4324800495829826,0.04726765073979781
0.41215087683095386,1.4324800495829826,0.48325391655146643
0.41215087683095386,1.4324800495829826,-0.3086738096958119
0.41215087683095386,1.4324800495829826,-0.0056494935626052465
0.41215087683095386,0.6270446045261721,-0.3086738096958119
0.41215087683095386,0.6270446045261721,-0.0056494935626052465
0.41215087683095386,0.6270446045261721,0.5354908969630913
0.41215087683095386,0.6270446045261721,0.04726765073979781
0.41215087683095386,0.6270446045261721,0.48325391655146643
0.41215087683095386,0.5354908969630913,-0.3086738096958119
0.41215087683095386,0.5354908969630913,-0.0056494935626052465
0.41215087683095386,0.5354908969630913,0.04726765073979781
0.41215087683095386,0.5354908969630913,0.48325391655146643
0.41215087683095386,0.04726765073979781,-0.3086738096958119
0.41215087683095386,0.04726765073979781,-0.0056494935626052465
0.41215087683095386,0.04726765073979781,0.48325391655146643
0.41215087683095386,0.48325391655146643,-0.3086738096958119
0.41215087683095386,0.48325391655146643,-0.0056494935626052465
0.41215087683095386,-0.3086738096958119,-0.0056494935626052465
1.4324800495829826,0.6270446045261721,-0.3086738096958119
1.4324800495829826,0.6270446045261721,-0.0056494935626052465
1.4324800495829826,0.6270446045261721,0.5354908969630913
1.4324800495829826,0.6270446045261721,0.04726765073979781
1.4324800495829826,0.6270446045261721,0.48325391655146643
1.4324800495829826,0.5354908969630913,-0.3086738096958119
1.4324800495829826,0.5354908969630913,-0.0056494935626052465
1.4324800495829826,0.5354908969630913,0.04726765073979781
1.4324800495829826,0.5354908969630913,0.48325391655146643
1.4324800495829826,0.04726765073979781,-0.3086738096958119
1.4324800495829826,0.04726765073979781,-0.0056494935626052465
1.4324800495829826,0.04726765073979781,0.48325391655146643
1.4324800495829826,0.48325391655146643,-0.3086738096958119
1.4324800495829826,0.48325391655146643,-0.0056494935626052465
1.4324800495829826,-0.3086738096958119,-0.0056494935626052465
0.6270446045261721,-0.3086738096958119,-0.0056494935626052465
0.6270446045261721,0.5354908969630913,-0.3086738096958119
0.6270446045261721,0.5354908969630913,-0.0056494935626052465
0.6270446045261721,0.5354908969630913,0.04726765073979781
0.6270446045261721,0.5354908969630913,0.48325391655146643
0.6270446045261721,0.04726765073979781,-0.3086738096958119
0.6270446045261721,0.04726765073979781,-0.0056494935626052465
0.6270446045261721,0.04726765073979781,0.48325391655146643
0.6270446045261721,0.48325391655146643,-0.3086738096958119
0.6270446045261721,0.48325391655146643,-0.0056494935626052465
0.5354908969630913,-0.3086738096958119,-0.0056494935626052465
0.5354908969630913,0.04726765073979781,-0.3086738096958119
0.5354908969630913,0.04726765073979781,-0.0056494935626052465
0.5354908969630913,0.04726765073979781,0.48325391655146643
0.5354908969630913,0.48325391655146643,-0.3086738096958119
0.5354908969630913,0.48325391655146643,-0.0056494935626052465
0.04726765073979781,-0.3086738096958119,-0.0056494935626052465
0.04726765073979781,0.48325391655146643,-0.3086738096958119
0.04726765073979781,0.48325391655146643,-0.0056494935626052465
0.48325391655146643,-0.3086738096958119,-0.0056494935626052465
