0,1,2
1.8924636061265103,0.02131125195505228,1.1781431385702825
1.8924636061265103,0.02131125195505228,-0.3336637305453492
1.8924636061265103,0.02131125195505228,1.9438587628007724
1.8924636061265103,0.02131125195505228,1.2737375331193574
1.8924636061265103,0.02131125195505228,-1.0073942362124664
1.8924636061265103,0.02131125195505228,1.1859337119469555
1.8924636061265103,0.02131125195505228,0.7050516289591551
1.8924636061265103,0.02131125195505228,2.21365213585967
1.8924636061265103,1.1781431385702825,-0.3336637305453492
1.8924636061265103,1.1781431385702825,1.9438587628007724
1.8924636061265103,1.1781431385702825,1.2737375331193574
1.8924636061265103,1.1781431385702825,-1.0073942362124664
1.8924636061265103,1.1781431385702825,1.1859337119469555
1.8924636061265103,1.1781431385702825,0.7050516289591551
1.8924636061265103,1.1781431385702825,2.21365213585967
1.8924636061265103,-0.3336637305453492,1.9438587628007724
1.8924636061265103,-0.3336637305453492,1.2737375331193574
1.8924636061265103,-0.3336637305453492,-1.0073942362124664
1.8924636061265103,-0.3336637305453492,1.1859337119469555
1.8924636061265103,-0.3336637305453492,0.7050516289591551
1.8924636061265103,-0.3336637305453492,2.21365213585967
1.8924636061265103,1.9438587628007724,0.7050516289591551
1.8924636061265103,1.9438587628007724,2.21365213585967
1.8924636061265103,1.9438587628007724,1.2737375331193574
1.8924636061265103,1.9438587628007724,-1.0073942362124664
1.8924636061265103,1.9438587628007724,1.1859337119469555
1.8924636061265103,1.2737375331193574,0.7050516289591551
1.8924636061265103,1.2737375331193574,2.21365213585967
1.8924636061265103,1.2737375331193574,-1.0073942362124664
1.8924636061265103,1.2737375331193574,1.1859337119469555
1.8924636061265103,-1.0073942362124664,0.7050516289591551
1.8924636061265103,-1.0073942362124664,2.21365213585967
1.8924636061265103,-1.0073942362124664,1.1859337119469555
1.8924636061265103,1.1859337119469555,0.7050516289591551
1.8924636061265103,1.1859337119469555,2.21365213585967
1.8924636061265103,0.7050516289591551,2.21365213585967
0.02131125195505228,1.1781431385702825,-0.3336637305453492
0.02131125195505228,1.1781431385702825,1.9438587628007724
0.02131125195505228,1.1781431385702825,1.2737375331193574
0.02131125195505228,1.1781431385702825,-1.0073942362124664
0.02131125195505228,1.1781431385702825,1.1859337119469555
0.02131125195505228,1.1781431385702825,0.7050516289591551
0.02131125195505228,1.1781431385702825,2.21365213585967
0.02131125195505228,-0.3336637305453492,1.9438587628007724
0.02131125195505228,-0.3336637305453492,1.2737375331193574
0.02131125195505228,-0.3336637305453492,-1.0073942362124664
0.02131125195505228,-0.3336637305453492,1.1859337119469555
0.02131125195505228,-0.3336637305453492,0.7050516289591551
0.02131125195505228,-0.3336637305453492,2.21365213585967
0.02131125195505228,1.9438587628007724,0.7050516289591551
0.02131125195505228,1.9438587628007724,2.21365213585967
0.02131125195505228,1.9438587628007724,1.2737375331193574
0.02131125195505228,1.9438587628007724,-1.0073942362124664
0.02131125195505228,1.9438587628007724,1.1859337119469555
0.02131125195505228,1.2737375331193574,0.7050516289591551
0.02131125195505228,1.2737375331193574,2.21365213585967
0.02131125195505228,1.2737375331193574,-1.0073942362124664
0.02131125195505228,1.2737375331193574,1.1859337119469555
0.02131125195505228,-1.0073942362124664,0.7050516289591551
0.02131125195505228,-1.0073942362124664,2.21365213585967
0.02131125195505228,-1.0073942362124664,1.1859337119469555
0.02131125195505228,1.1859337119469555,0.7050516289591551
0.02131125195505228,1.1859337119469555,2.21365213585967
0.02131125195505228,0.7050516289591551,2.21365213585967
1.1781431385702825,-0.3336637305453492,1.9438587628007724
1.1781431385702825,-0.3336637305453492,1.2737375331193574
1.1781431385702825,-0.3336637305453492,-1.0073942362124664
1.1781431385702825,-0.3336637305453492,1.1859337119469555
1.1781431385702825,-0.3336637305453492,0.7050516289591551
1.1781431385702825,-0.3336637305453492,2.21365213585967
1.1781431385702825,1.9438587628007724,0.7050516289591551
1.1781431385702825,1.9438587628007724,2.21365213585967
1.1781431385702825,1.9438587628007724,1.2737375331193574
1.1781431385702825,1.9438587628007724,-1.0073942362124664
1.1781431385702825,1.9438587628007724,1.1859337119469555
1.1781431385702825,1.2737375331193574,0.7050516289591551
1.1781431385702825,1.2737375331193574,2.21365213585967
1.1781431385702825,1.2737375331193574,-1.0073942362124664
1.1781431385702825,1.2737375331193574,1.1859337119469555
1.1781431385702825,-1.0073942362124664,0.7050516289591551
1.1781431385702825,-1.0073942362124664,2.21365213585967
1.1781431385702825,-1.0073942362124664,1.1859337119469555
1.1781431385702825,1.1859337119469555,0.7050516289591551
1.1781431385702825,1.1859337119469555,2.21365213585967
1.1781431385702825,0.7050516289591551,2.21365213585967
-0.3336637305453492,1.9438587628007724,0.7050516289591551
-0.3336637305453492,1.9438587628007724,2.21365213585967
-0.3336637305453492,1.9438587628007724,1.2737375331193574
-0.3336637305453492,1.9438587628007724,-1.0073942362124664
-0.3336637305453492,1.9438587628007724,1.1859337119469555
-0.3336637305453492,1.2737375331193574,0.7050516289591551
-0.3336637305453492,1.2737375331193574,2.21365213585967
-0.3336637305453492,1.2737375331193574,-1.0073942362124664
-0.3336637305453492,1.2737375331193574,1.1859337119469555
-0.3336637305453492,-1.0073942362124664,0.7050516289591551
-0.3336637305453492,-1.0073942362124664,2.21365213585967
-0.3336637305453492,-1.0073942362124664,1.1859337119469555
-0.3336637305453492,1.1859337119469555,0.7050516289591551
-0.3336637305453492,1.1859337119469555,2.21365213585967
-0.3336637305453492,0.7050516289591551,2.21365213585967
1.9438587628007724,0.7050516289591551,2.21365213585967
1.9438587628007724,1.2737375331193574,0.7050516289591551
1.9438587628007724,1.2737375331193574,2.21365213585967
1.9438587628007724,1.2737375331193574,-1.0073942362124664
1.9438587628007724,1.2737375331193574,1.1859337119469555
1.9438587628007724,-1.0073942362124664,0.7050516289591551
1.9438587628007724,-1.0073942362124664,2.21365213585967
1.9438587628007724,-1.0073942362124664,1.1859337119469555
1.9438587628007724,1.1859337119469555,0.7050516289591551
1.9438587628007724,1.1859337119469555,2.21365213585967
1.2737375331193574,0.7050516289591551,2.21365213585967
1.2737375331193574,-1.0073942362124664,0.7050516289591551
1.2737375331193574,-1.0073942362124664,2.21365213585967
1.2737375331193574,-1.0073942362124664,1.1859337119469555
1.2737375331193574,1.1859337119469555,0.7050516289591551
1.2737375331193574,1.1859337119469555,2.21365213585967
-1.0073942362124664,0.7050516289591551,2.21365213585967
-1.0073942362124664,1.1859337119469555,0.7050516289591551
-1.0073942362124664,1.1859337119469555,2.21365213585967
1.1859337119469555,0.7050516289591551,2.21365213585967
