0,1,2
0.7210201109150208,0.6642995746653411,0.6601131403257687
0.7210201109150208,0.6642995746653411,0.4064026849206371
0.7210201109150208,0.6642995746653411,1.3691256285700213
0.7210201109150208,0.6642995746653411,-1.0166171789876965
0.7210201109150208,0.6642995746653411,-0.6375319218189612
0.7210201109150208,0.6642995746653411,2.6017848938245853
0.7210201109150208,0.6642995746653411,0.09014788634825442
0.7210201109150208,0.6642995746653411,-0.8345358433338049
0.7210201109150208,0.6601131403257687,0.4064026849206371
0.7210201109150208,0.6601131403257687,1.3691256285700213
0.7210201109150208,0.6601131403257687,-1.0166171789876965
0.7210201109150208,0.6601131403257687,-0.6375319218189612
0.7210201109150208,0.6601131403257687,2.6017848938245853
0.7210201109150208,0.6601131403257687,0.09014788634825442
0.7210201109150208,0.6601131403257687,-0.8345358433338049
0.7210201109150208,0.4064026849206371,1.3691256285700213
0.7210201109150208,0.4064026849206371,-1.0166171789876965
0.7210201109150208,0.4064026849206371,-0.6375319218189612
0.7210201109150208,0.4064026849206371,2.6017848938245853
0.7210201109150208,0.4064026849206371,0.09014788634825442
0.7210201109150208,0.4064026849206371,-0.8345358433338049
0.7210201109150208,1.3691256285700213,0.09014788634825442
0.7210201109150208,1.3691256285700213,-0.8345358433338049
0.7210201109150208,1.3691256285700213,-1.0166171789876965
0.7210201109150208,1.3691256285700213,-0.6375319218189612
0.7210201109150208,1.3691256285700213,2.6017848938245853
0.7210201109150208,-1.0166171789876965,0.09014788634825442
0.7210201109150208,-1.0166171789876965,-0.8345358433338049
0.7210201109150208,-1.0166171789876965,-0.6375319218189612
0.7210201109150208,-1.0166171789876965,2.6017848938245853
0.7210201109150208,-0.6375319218189612,0.09014788634825442
0.7210201109150208,-0.6375319218189612,-0.8345358433338049
0.7210201109150208,-0.6375319218189612,2.6017848938245853
0.7210201109150208,2.6017848938245853,0.09014788634825442
0.7210201109150208,2.6017848938245853,-0.8345358433338049
0.7210201109150208,0.09014788634825442,-0.8345358433338049
0.6642995746653411,0.6601131403257687,0.4064026849206371
0.6642995746653411,0.6601131403257687,1.3691256285700213
0.6642995746653411,0.6601131403257687,-1.0166171789876965
0.6642995746653411,0.6601131403257687,-0.6375319218189612
0.6642995746653411,0.6601131403257687,2.6017848938245853
0.6642995746653411,0.6601131403257687,0.09014788634825442
0.6642995746653411,0.6601131403257687,-0.8345358433338049
0.6642995746653411,0.4064026849206371,1.3691256285700213
0.6642995746653411,0.4064026849206371,-1.0166171789876965
0.6642995746653411,0.4064026849206371,-0.6375319218189612
0.6642995746653411,0.4064026849206371,2.6017848938245853
0.6642995746653411,0.4064026849206371,0.09014788634825442
0.6642995746653411,0.4064026849206371,-0.8345358433338049
0.6642995746653411,1.3691256285700213,0.09014788634825442
0.6642995746653411,1.3691256285700213,-0.8345358433338049
0.6642995746653411,1.3691256285700213,-1.0166171789876965
0.6642995746653411,1.3691256285700213,-0.6375319218189612
0.6642995746653411,1.3691256285700213,2.6017848938245853
0.6642995746653411,-1.0166171789876965,0.09014788634825442
0.6642995746653411,-1.0166171789876965,-0.8345358433338049
0.6642995746653411,-1.0166171789876965,-0.6375319218189612
0.6642995746653411,-1.0166171789876965,2.6017848938245853
0.6642995746653411,-0.6375319218189612,0.09014788634825442
0.6642995746653411,-0.6375319218189612,-0.8345358433338049
0.6642995746653411,-0.6375319218189612,2.6017848938245853
0.6642995746653411,2.6017848938245853,0.09014788634825442
0.6642995746653411,2.6017848938245853,-0.8345358433338049
0.6642995746653411,0.09014788634825442,-0.8345358433338049
0.6601131403257687,0.4064026849206371,1.3691256285700213
0.6601131403257687,0.4064026849206371,-1.0166171789876965
0.6601131403257687,0.4064026849206371,-0.6375319218189612
0.6601131403257687,0.4064026849206371,2.6017848938245853
0.6601131403257687,0.4064026849206371,0.09014788634825442
0.6601131403257687,0.4064026849206371,-0.8345358433338049
0.6601131403257687,1.3691256285700213,0.09014788634825442
0.6601131403257687,1.3691256285700213,-0.8345358433338049
0.6601131403257687,1.3691256285700213,-1.0166171789876965
0.6601131403257687,1.3691256285700213,-0.6375319218189612
0.6601131403257687,1.3691256285700213,2.6017848938245853
0.6601131403257687,-1.0166171789876965,0.09014788634825442
0.6601131403257687,-1.0166171789876965,-0.8345358433338049
0.6601131403257687,-1.0166171789876965,-0.6375319218189612
0.6601131403257687,-1.0166171789876965,2.6017848938245853
0.6601131403257687,-0.6375319218189612,0.09014788634825442
0.6601131403257687,-0.6375319218189612,-0.8345358433338049
0.6601131403257687,-0.6375319218189612,2.6017848938245853
0.6601131403257687,2.6017848938245853,0.09014788634825442
0.6601131403257687,2.6017848938245853,-0.8345358433338049
0.6601131403257687,0.09014788634825442,-0.8345358433338049
0.4064026849206371,1.3691256285700213,0.09014788634825442
0.4064026849206371,1.3691256285700213,-0.8345358433338049
0.4064026849206371,1.3691256285700213,-1.0166171789876965
0.4064026849206371,1.3691256285700213,-0.6375319218189612
0.4064026849206371,1.3691256285700213,2.6017848938245853
0.4064026849206371,-1.0166171789876965,0.09014788634825442
0.4064026849206371,-1.0166171789876965,-0.8345358433338049
0.4064026849206371,-1.0166171789876965,-0.6375319218189612
0.4064026849206371,-1.0166171789876965,2.6017848938245853
0.4064026849206371,-0.6375319218189612,0.09014788634825442
0.4064026849206371,-0.6375319218189612,-0.8345358433338049
0.4064026849206371,-0.6375319218189612,2.6017848938245853
0.4064026849206371,2.6017848938245853,0.09014788634825442
0.4064026849206371,2.6017848938245853,-0.8345358433338049
0.4064026849206371,0.09014788634825442,-0.8345358433338049
1.3691256285700213,0.09014788634825442,-0.8345358433338049
1.3691256285700213,-1.0166171789876965,0.09014788634825442
1.3691256285700213,-1.0166171789876965,-0.8345358433338049
1.3691256285700213,-1.0166171789876965,-0.6375319218189612
1.3691256285700213,-1.0166171789876965,2.6017848938245853
1.3691256285700213,-0.6375319218189612,0.09014788634825442
1.3691256285700213,-0.6375319218189612,-0.8345358433338049
1.3691256285700213,-0.6375319218189612,2.6017848938245853
1.3691256285700213,2.6017848938245853,0.09014788634825442
1.3691256285700213,2.6017848938245853,-0.8345358433338049
-1.0166171789876965,0.09014788634825442,-0.8345358433338049
-1.0166171789876965,-0.6375319218189612,0.09014788634825442
-1.0166171789876965,-0.6375319218189612,-0.8345358433338049
-1.0166171789876965,-0.6375319218189612,2.6017848938245853
-1.0166171789876965,2.6017848938245853,0.09014788634825442
-1.0166171789876965,2.6017848938245853,-0.8345358433338049
-0.6375319218189612,0.09014788634825442,-0.8345358433338049
-0.6375319218189612,2.6017848938245853,0.09014788634825442
-0.6375319218189612,2.6017848938245853,-0.8345358433338049
2.6017848938245853,0.09014788634825442,-0.8345358433338049
