0,1,2
0.5390720552783635,-0.9104610743335302,-0.6976007505261813
0.5390720552783635,-0.9104610743335302,1.750245615571276
0.5390720552783635,-0.9104610743335302,0.3699055100449647
0.5390720552783635,-0.9104610743335302,0.04086149747406091
0.5390720552783635,-0.9104610743335302,-1.0745828706286447
0.5390720552783635,-0.9104610743335302,-0.11875223524487402
0.5390720552783635,-0.9104610743335302,2.0333542004073633
0.5390720552783635,-0.9104610743335302,-0.4954155919105052
0.5390720552783635,-0.6976007505261813,1.750245615571276
0.5390720552783635,-0.6976007505261813,0.3699055100449647
0.5390720552783635,-0.6976007505261813,0.04086149747406091
0.5390720552783635,-0.6976007505261813,-1.0745828706286447
0.5390720552783635,-0.6976007505261813,-0.11875223524487402
0.5390720552783635,-0.6976007505261813,2.0333542004073633
0.5390720552783635,-0.6976007505261813,-0.4954155919105052
0.5390720552783635,1.750245615571276,0.3699055100449647
0.5390720552783635,1.750245615571276,0.04086149747406091
0.5390720552783635,1.750245615571276,-1.0745828706286447
0.5390720552783635,1.750245615571276,-0.11875223524487402
0.5390720552783635,1.750245615571276,2.0333542004073633
0.5390720552783635,1.750245615571276,-0.4954155919105052
0.5390720552783635,0.3699055100449647,2.0333542004073633
0.5390720552783635,0.3699055100449647,-0.4954155919105052
0.5390720552783635,0.3699055100449647,0.04086149747406091
0.5390720552783635,0.3699055100449647,-1.0745828706286447
0.5390720552783635,0.3699055100449647,-0.11875223524487402
0.5390720552783635,0.04086149747406091,2.0333542004073633
0.5390720552783635,0.04086149747406091,-0.4954155919105052
0.5390720552783635,0.04086149747406091,-1.0745828706286447
0.5390720552783635,0.04086149747406091,-0.11875223524487402
0.5390720552783635,-1.0745828706286447,2.0333542004073633
0.5390720552783635,-1.0745828706286447,-0.4954155919105052
0.5390720552783635,-1.0745828706286447,-0.11875223524487402
0.5390720552783635,-0.11875223524487402,2.0333542004073633
0.5390720552783635,-0.11875223524487402,-0.4954155919105052
0.5390720552783635,2.0333542004073633,-0.4954155919105052
-0.9104610743335302,-0.6976007505261813,1.750245615571276
-0.9104610743335302,-0.6976007505261813,0.3699055100449647
-0.9104610743335302,-0.6976007505261813,0.04086149747406091
-0.9104610743335302,-0.6976007505261813,-1.0745828706286447
-0.9104610743335302,-0.6976007505261813,-0.11875223524487402
-0.9104610743335302,-0.6976007505261813,2.0333542004073633
-0.9104610743335302,-0.6976007505261813,-0.4954155919105052
-0.9104610743335302,1.750245615571276,0.3699055100449647
-0.9104610743335302,1.750245615571276,0.04086149747406091
-0.9104610743335302,1.750245615571276,-1.0745828706286447
-0.9104610743335302,1.750245615571276,-0.11875223524487402
-0.9104610743335302,1.750245615571276,2.0333542004073633
-0.9104610743335302,1.750245615571276,-0.4954155919105052
-0.9104610743335302,0.3699055100449647,2.0333542004073633
-0.9104610743335302,0.3699055100449647,-0.4954155919105052
-0.9104610743335302,0.3699055100449647,0.04086149747406091
-0.9104610743335302,0.3699055100449647,-1.0745828706286447
-0.9104610743335302,0.3699055100449647,-0.11875223524487402
-0.9104610743335302,0.04086149747406091,2.0333542004073633
-0.9104610743335302,0.04086149747406091,-0.4954155919105052
-0.9104610743335302,0.04086149747406091,-1.0745828706286447
-0.9104610743335302,0.04086149747406091,-0.11875223524487402
-0.9104610743335302,-1.0745828706286447,2.0333542004073633
-0.9104610743335302,-1.0745828706286447,-0.4954155919105052
-0.9104610743335302,-1.0745828706286447,-0.11875223524487402
-0.9104610743335302,-0.11875223524487402,2.0333542004073633
-0.9104610743335302,-0.11875223524487402,-0.4954155919105052
-0.9104610743335302,2.0333542004073633,-0.4954155919105052
-0.6976007505261813,1.750245615571276,0.3699055100449647
-0.6976007505261813,1.750245615571276,0.04086149747406091
-0.6976007505261813,1.750245615571276,-1.0745828706286447
-0.6976007505261813,1.750245615571276,-0.11875223524487402
-0.6976007505261813,1.750245615571276,2.0333542004073633
-0.6976007505261813,1.750245615571276,-0.4954155919105052
-0.6976007505261813,0.3699055100449647,2.0333542004073633
-0.6976007505261813,0.3699055100449647,-0.4954155919105052
-0.6976007505261813,0.3699055100449647,0.04086149747406091
-0.6976007505261813,0.3699055100449647,-1.0745828706286447
-0.6976007505261813,0.3699055100449647,-0.11875223524487402
-0.6976007505261813,0.04086149747406091,2.0333542004073633
-0.6976007505261813,0.04086149747406091,-0.4954155919105052
-0.6976007505261813,0.04086149747406091,-1.0745828706286447
-0.6976007505261813,0.04086149747406091,-0.11875223524487402
-0.6976007505261813,-1.0745828706286447,2.0333542004073633
-0.6976007505261813,-1.0745828706286447,-0.4954155919105052
-0.6976007505261813,-1.0745828706286447,-0.11875223524487402
-0.6976007505261813,-0.11875223524487402,2.0333542004073633
-0.6976007505261813,-0.11875223524487402,-0.4954155919105052
-0.6976007505261813,2.0333542004073633,-0.4954155919105052
1.750245615571276,0.3699055100449647,2.0333542004073633
1.750245615571276,0.3699055100449647,-0.4954155919105052
1.750245615571276,0.3699055100449647,0.04086149747406091
1.750245615571276,0.3699055100449647,-1.0745828706286447
1.750245615571276,0.3699055100449647,-0.11875223524487402
1.750245615571276,0.04086149747406091,2.0333542004073633
1.750245615571276,0.04086149747406091,-0.4954155919105052
1.750245615571276,0.04086149747406091,-1.0745828706286447
1.750245615571276,0.04086149747406091,-0.11875223524487402
1.750245615571276,-1.0745828706286447,2.0333542004073633
1.750245615571276,-1.0745828706286447,-0.4954155919105052
1.750245615571276,-1.0745828706286447,-0.11875223524487402
1.750245615571276,-0.11875223524487402,2.0333542004073633
1.750245615571276,-0.11875223524487402,-0.4954155919105052
1.750245615571276,2.0333542004073633,-0.4954155919105052
0.3699055100449647,2.0333542004073633,-0.4954155919105052
0.3699055100449647,0.04086149747406091,2.0333542004073633
0.3699055100449647,0.04086149747406091,-0.4954155919105052
0.3699055100449647,0.04086149747406091,-1.0745828706286447
0.3699055100449647,0.04086149747406091,-0.11875223524487402
0.3699055100449647,-1.0745828706286447,2.0333542004073633
0.3699055100449647,-1.0745828706286447,-0.4954155919105052
0.3699055100449647,-1.0745828706286447,-0.11875223524487402
0.3699055100449647,-0.11875223524487402,2.0333542004073633
0.3699055100449647,-0.11875223524487402,-0.4954155919105052
0.04086149747406091,2.0333542004073633,-0.4954155919105052
0.04086149747406091,-1.0745828706286447,2.0333542004073633
0.04086149747406091,-1.0745828706286447,-0.4954155919105052
0.04086149747406091,-1.0745828706286447,-0.11875223524487402
0.04086149747406091,-0.11875223524487402,2.0333542004073633
0.04086149747406091,-0.11875223524487402,-0.4954155919105052
-1.0745828706286447,2.0333542004073633,-0.4954155919105052
-1.0745828706286447,-0.11875223524487402,2.0333542004073633
-1.0745828706286447,-0.11875223524487402,-0.4954155919105052
-0.11875223524487402,2.0333542004073633,-0.4954155919105052
