0,1,2
1.3735539786047708,-1.159122850586769,0.9051577690426248
1.3735539786047708,-1.159122850586769,-0.9342217592074543
1.3735539786047708,-1.159122850586769,-0.5137332282187855
1.3735539786047708,-1.159122850586769,-0.049249699784863446
1.3735539786047708,-1.159122850586769,1.3845142578811263
1.3735539786047708,-1.159122850586769,0.41021464165619503
1.3735539786047708,-1.159122850586769,0.08110687063646786
1.3735539786047708,-1.159122850586769,-1.1816000949379966
1.3735539786047708,0.9051577690426248,-0.9342217592074543
1.3735539786047708,0.9051577690426248,-0.5137332282187855
1.3735539786047708,0.9051577690426248,-0.049249699784863446
1.3735539786047708,0.9051577690426248,1.3845142578811263
1.3735539786047708,0.9051577690426248,0.41021464165619503
1.3735539786047708,0.9051577690426248,0.08110687063646786
1.3735539786047708,0.9051577690426248,-1.1816000949379966
1.3735539786047708,-0.9342217592074543,-0.5137332282187855
1.3735539786047708,-0.9342217592074543,-0.049249699784863446
1.3735539786047708,-0.9342217592074543,1.3845142578811263
1.3735539786047708,-0.9342217592074543,0.41021464165619503
1.3735539786047708,-0.9342217592074543,0.08110687063646786
1.3735539786047708,-0.9342217592074543,-1.1816000949379966
1.3735539786047708,-0.5137332282187855,0.08110687063646786
1.3735539786047708,-0.5137332282187855,-1.1816000949379966
1.3735539786047708,-0.5137332282187855,-0.049249699784863446
1.3735539786047708,-0.5137332282187855,1.3845142578811263
1.3735539786047708,-0.5137332282187855,0.41021464165619503
1.3735539786047708,-0.049249699784863446,0.08110687063646786
1.3735539786047708,-0.049249699784863446,-1.1816000949379966
1.3735539786047708,-0.049249699784863446,1.3845142578811263
1.3735539786047708,-0.049249699784863446,0.41021464165619503
1.3735539786047708,1.3845142578811263,0.08110687063646786
1.3735539786047708,1.3845142578811263,-1.1816000949379966
1.3735539786047708,1.3845142578811263,0.41021464165619503
1.3735539786047708,0.41021464165619503,0.08110687063646786
1.3735539786047708,0.41021464165619503,-1.1816000949379966
1.3735539786047708,0.08110687063646786,-1.1816000949379966
-1.159122850586769,0.9051577690426248,-0.9342217592074543
-1.159122850586769,0.9051577690426248,-0.5137332282187855
-1.159122850586769,0.9051577690426248,-0.049249699784863446
-1.159122850586769,0.9051577690426248,1.3845142578811263
-1.159122850586769,0.9051577690426248,0.41021464165619503
-1.159122850586769,0.9051577690426248,0.08110687063646786
-1.159122850586769,0.9051577690426248,-1.1816000949379966
-1.159122850586769,-0.9342217592074543,-0.5137332282187855
-1.159122850586769,-0.9342217592074543,-0.049249699784863446
-1.159122850586769,-0.9342217592074543,1.3845142578811263
-1.159122850586769,-0.9342217592074543,0.41021464165619503
-1.159122850586769,-0.9342217592074543,0.08110687063646786
-1.159122850586769,-0.9342217592074543,-1.1816000949379966
-1.159122850586769,-0.5137332282187855,0.08110687063646786
-1.159122850586769,-0.5137332282187855,-1.1816000949379966
-1.159122850586769,-0.5137332282187855,-0.049249699784863446
-1.159122850586769,-0.5137332282187855,1.3845142578811263
-1.159122850586769,-0.5137332282187855,0.41021464165619503
-1.159122850586769,-0.049249699784863446,0.08110687063646786
-1.159122850586769,-0.049249699784863446,-1.1816000949379966
-1.159122850586769,-0.049249699784863446,1.3845142578811263
-1.159122850586769,-0.049249699784863446,0.41021464165619503
-1.159122850586769,1.3845142578811263,0.08110687063646786
-1.159122850586769,1.3845142578811263,-1.1816000949379966
-1.159122850586769,1.3845142578811263,0.41021464165619503
-1.159122850586769,0.41021464165619503,0.08110687063646786
-1.159122850586769,0.41021464165619503,-1.1816000949379966
-1.159122850586769,0.08110687063646786,-1.1816000949379966
0.9051577690426248,-0.9342217592074543,-0.5137332282187855
0.9051577690426248,-0.9342217592074543,-0.049249699784863446
0.9051577690426248,-0.9342217592074543,1.3845142578811263
0.9051577690426248,-0.9342217592074543,0.41021464165619503
0.9051577690426248,-0.9342217592074543,0.08110687063646786
0.9051577690426248,-0.9342217592074543,-1.1816000949379966
0.9051577690426248,-0.5137332282187855,0.08110687063646786
0.9051577690426248,-0.5137332282187855,-1.1816000949379966
0.9051577690426248,-0.5137332282187855,-0.049249699784863446
0.9051577690426248,-0.5137332282187855,1.3845142578811263
0.9051577690426248,-0.5137332282187855,0.41021464165619503
0.9051577690426248,-0.049249699784863446,0.08110687063646786
0.9051577690426248,-0.049249699784863446,-1.1816000949379966
0.9051577690426248,-0.049249699784863446,1.3845142578811263
0.9051577690426248,-0.049249699784863446,0.41021464165619503
0.9051577690426248,1.3845142578811263,0.08110687063646786
0.9051577690426248,1.3845142578811263,-1.1816000949379966
0.9051577690426248,1.3845142578811263,0.41021464165619503
0.9051577690426248,0.41021464165619503,0.08110687063646786
0.9051577690426248,0.41021464165619503,-1.1816000949379966
0.9051577690426248,0.08110687063646786,-1.1816000949379966
-0.9342217592074543,-0.5137332282187855,0.08110687063646786
-0.9342217592074543,-0.5137332282187855,-1.1816000949379966
-0.9342217592074543,-0.5137332282187855,-0.049249699784863446
-0.9342217592074543,-0.5137332282187855,1.3845142578811263
-0.9342217592074543,-0.5137332282187855,0.41021464165619503
-0.9342217592074543,-0.049249699784863446,0.08110687063646786
-0.9342217592074543,-0.049249699784863446,-1.1816000949379966
-0.9342217592074543,-0.049249699784863446,1.3845142578811263
-0.9342217592074543,-0.049249699784863446,0.41021464165619503
-0.9342217592074543,1.3845142578811263,0.08110687063646786
-0.9342217592074543,1.3845142578811263,-1.1816000949379966
-0.9342217592074543,1.3845142578811263,0.41021464165619503
-0.9342217592074543,0.41021464165619503,0.08110687063646786
-0.9342217592074543,0.41021464165619503,-1.1816000949379966
-0.9342217592074543,0.08110687063646786,-1.1816000949379966
-0.5137332282187855,0.08110687063646786,-1.1816000949379966
-0.5137332282187855,-0.049249699784863446,0.08110687063646786
-0.5137332282187855,-0.049249699784863446,-1.1816000949379966
-0.5137332282187855,-0.049249699784863446,1.3845142578811263
-0.5137332282187855,-0.049249699784863446,0.41021464165619503
-0.5137332282187855,1.3845142578811263,0.08110687063646786
-0.5137332282187855,1.3845142578811263,-1.1816000949379966
-0.5137332282187855,1.3845142578811263,0.41021464165619503
-0.5137332282187855,0.41021464165619503,0.08110687063646786
-0.5137332282187855,0.41021464165619503,-1.1816000949379966
-0.049249699784863446,0.08110687063646786,-1.1816000949379966
-0.049249699784863446,1.3845142578811263,0.08110687063646786
-0.049249699784863446,1.3845142578811263,-1.1816000949379966
-0.049249699784863446,1.3845142578811263,0.41021464165619503
-0.049249699784863446,0.41021464165619503,0.08110687063646786
-0.049249699784863446,0.41021464165619503,-1.1816000949379966
1.3845142578811263,0.08110687063646786,-1.1816000949379966
1.3845142578811263,0.41021464165619503,0.08110687063646786
1.3845142578811263,0.41021464165619503,-1.1816000949379966
0.41021464165619503,0.08110687063646786,-1.1816000949379966
