0,1,2
-0.3549722626979375,-0.021951606810280955,-0.27473230241200725
-0.3549722626979375,-0.021951606810280955,0.6023083472980746
-0.3549722626979375,-0.021951606810280955,-1.171636861631702
-0.3549722626979375,-0.021951606810280955,0.07550347345678506
-0.3549722626979375,-0.021951606810280955,0.9274323720711599
-0.3549722626979375,-0.021951606810280955,0.3735312526765205
-0.3549722626979375,-0.021951606810280955,-0.2612016626598725
-0.3549722626979375,-0.021951606810280955,0.4345067626873113
-0.3549722626979375,-0.27473230241200725,0.6023083472980746
-0.3549722626979375,-0.27473230241200725,-1.171636861631702
-0.3549722626979375,-0.27473230241200725,0.07550347345678506
-0.3549722626979375,-0.27473230241200725,0.9274323720711599
-0.3549722626979375,-0.27473230241200725,0.3735312526765205
-0.3549722626979375,-0.27473230241200725,-0.2612016626598725
-0.3549722626979375,-0.27473230241200725,0.4345067626873113
-0.3549722626979375,0.6023083472980746,-1.171636861631702
-0.3549722626979375,0.6023083472980746,0.07550347345678506
-0.3549722626979375,0.6023083472980746,0.9274323720711599
-0.3549722626979375,0.6023083472980746,0.3735312526765205
-0.3549722626979375,0.6023083472980746,-0.2612016626598725
-0.3549722626979375,0.6023083472980746,0.4345067626873113
-0.3549722626979375,-1.171636861631702,-0.2612016626598725
-0.3549722626979375,-1.171636861631702,0.4345067626873113
-0.3549722626979375,-1.171636861631702,0.07550347345678506
-0.3549722626979375,-1.171636861631702,0.9274323720711599
-0.3549722626979375,-1.171636861631702,0.3735312526765205
-0.3549722626979375,0.07550347345678506,-0.2612016626598725
-0.3549722626979375,0.07550347345678506,0.4345067626873113
-0.3549722626979375,0.07550347345678506,0.9274323720711599
-0.3549722626979375,0.07550347345678506,0.3735312526765205
-0.3549722626979375,0.9274323720711599,-0.2612016626598725
-0.3549722626979375,0.9274323720711599,0.4345067626873113
-0.3549722626979375,0.9274323720711599,0.3735312526765205
-0.3549722626979375,0.3735312526765205,-0.2612016626598725
-0.3549722626979375,0.3735312526765205,0.4345067626873113
-0.3549722626979375,-0.2612016626598725,0.4345067626873113
-0.021951606810280955,-0.27473230241200725,0.6023083472980746
-0.021951606810280955,-0.27473230241200725,-1.171636861631702
-0.021951606810280955,-0.27473230241200725,0.07550347345678506
-0.021951606810280955,-0.27473230241200725,0.9274323720711599
-0.021951606810280955,-0.27473230241200725,0.3735312526765205
-0.021951606810280955,-0.27473230241200725,-0.2612016626598725
-0.021951606810280955,-0.27473230241200725,0.4345067626873113
-0.021951606810280955,0.6023083472980746,-1.171636861631702
-0.021951606810280955,0.6023083472980746,0.07550347345678506
-0.021951606810280955,0.6023083472980746,0.9274323720711599
-0.021951606810280955,0.6023083472980746,0.3735312526765205
-0.021951606810280955,0.6023083472980746,-0.2612016626598725
-0.021951606810280955,0.6023083472980746,0.4345067626873113
-0.021951606810280955,-1.171636861631702,-0.2612016626598725
-0.021951606810280955,-1.171636861631702,0.4345067626873113
-0.021951606810280955,-1.171636861631702,0.07550347345678506
-0.021951606810280955,-1.171636861631702,0.9274323720711599
-0.021951606810280955,-1.171636861631702,0.3735312526765205
-0.021951606810280955,0.07550347345678506,-0.2612016626598725
-0.021951606810280955,0.07550347345678506,0.4345067626873113
-0.021951606810280955,0.07550347345678506,0.9274323720711599
-0.021951606810280955,0.07550347345678506,0.3735312526765205
-0.021951606810280955,0.9274323720711599,-0.2612016626598725
-0.021951606810280955,0.9274323720711599,0.4345067626873113
-0.021951606810280955,0.9274323720711599,0.3735312526765205
-0.021951606810280955,0.3735312526765205,-0.2612016626598725
-0.021951606810280955,0.3735312526765205,0.4345067626873113
-0.021951606810280955,-0.2612016626598725,0.4345067626873113
-0.27473230241200725,0.6023083472980746,-1.171636861631702
-0.27473230241200725,0.6023083472980746,0.07550347345678506
-0.27473230241200725,0.6023083472980746,0.9274323720711599
-0.27473230241200725,0.6023083472980746,0.3735312526765205
-0.27473230241200725,0.6023083472980746,-0.2612016626598725
-0.27473230241200725,0.6023083472980746,0.4345067626873113
-0.27473230241200725,-1.171636861631702,-0.2612016626598725
-0.27473230241200725,-1.171636861631702,0.4345067626873113
-0.27473230241200725,-1.171636861631702,0.07550347345678506
-0.27473230241200725,-1.171636861631702,0.9274323720711599
-0.27473230241200725,-1.171636861631702,0.3735312526765205
-0.27473230241200725,0.07550347345678506,-0.2612016626598725
-0.27473230241200725,0.07550347345678506,0.4345067626873113
-0.27473230241200725,0.07550347345678506,0.9274323720711599
-0.27473230241200725,0.07550347345678506,0.3735312526765205
-0.27473230241200725,0.9274323720711599,-0.2612016626598725
-0.27473230241200725,0.9274323720711599,0.4345067626873113
-0.27473230241200725,0.9274323720711599,0.3735312526765205
-0.27473230241200725,0.3735312526765205,-0.2612016626598725
-0.27473230241200725,0.3735312526765205,0.4345067626873113
-0.27473230241200725,-0.2612016626598725,0.4345067626873113
0.6023083472980746,-1.171636861631702,-0.2612016626598725
0.6023083472980746,-1.171636861631702,0.4345067626873113
0.6023083472980746,-1.171636861631702,0.07550347345678506
0.6023083472980746,-1.171636861631702,0.9274323720711599
0.6023083472980746,-1.171636861631702,0.3735312526765205
0.6023083472980746,0.07550347345678506,-0.2612016626598725
0.6023083472980746,0.07550347345678506,0.4345067626873113
0.6023083472980746,0.07550347345678506,0.9274323720711599
0.6023083472980746,0.07550347345678506,0.3735312526765205
0.6023083472980746,0.9274323720711599,-0.2612016626598725
0.6023083472980746,0.9274323720711599,0.4345067626873113
0.6023083472980746,0.9274323720711599,0.3735312526765205
0.6023083472980746,0.3735312526765205,-0.2612016626598725
0.6023083472980746,0.3735312526765205,0.4345067626873113
0.6023083472980746,-0.2612016626598725,0.4345067626873113
-1.171636861631702,-0.2612016626598725,0.4345067626873113
-1.171636861631702,0.07550347345678506,-0.2612016626598725
-1.171636861631702,0.07550347345678506,0.4345067626873113
-1.171636861631702,0.07550347345678506,0.9274323720711599
-1.171636861631702,0.07550347345678506,0.3735312526765205
-1.171636861631702,0.9274323720711599,-0.2612016626598725
-1.171636861631702,0.9274323720711599,0.4345067626873113
-1.171636861631702,0.9274323720711599,0.3735312526765205
-1.171636861631702,0.3735312526765205,-0.2612016626598725
-1.171636861631702,0.3735312526765205,0.4345067626873113
0.07550347345678506,-0.2612016626598725,0.4345067626873113
0.07550347345678506,0.9274323720711599,-0.2612016626598725
0.07550347345678506,0.9274323720711599,0.4345067626873113
0.07550347345678506,0.9274323720711599,0.3735312526765205
0.07550347345678506,0.3735312526765205,-0.2612016626598725
0.07550347345678506,0.3735312526765205,0.4345067626873113
0.9274323720711599,-0.2612016626598725,0.4345067626873113
0.9274323720711599,0.3735312526765205,-0.2612016626598725
0.9274323720711599,0.3735312526765205,0.4345067626873113
0.3735312526765205,-0.2612016626598725,0.4345067626873113
