0,1,2
-0.5902081764274157,0.3718591801184558,1.0622779287112798
-0.5902081764274157,0.3718591801184558,1.355891449389365
-0.5902081764274157,0.3718591801184558,-0.10791146054366907
-0.5902081764274157,0.3718591801184558,-0.2562683269460372
-0.5902081764274157,0.3718591801184558,-0.5672851671666929
-0.5902081764274157,0.3718591801184558,0.7888512576716817
-0.5902081764274157,0.3718591801184558,-0.3842969848375935
-0.5902081764274157,0.3718591801184558,-0.8648984120051073
-0.5902081764274157,1.0622779287112798,1.355891449389365
-0.5902081764274157,1.0622779287112798,-0.10791146054366907
-0.5902081764274157,1.0622779287112798,-0.2562683269460372
-0.5902081764274157,1.0622779287112798,-0.5672851671666929
-0.5902081764274157,1.0622779287112798,0.7888512576716817
-0.5902081764274157,1.0622779287112798,-0.3842969848375935
-0.5902081764274157,1.0622779287112798,-0.8648984120051073
-0.5902081764274157,1.355891449389365,-0.10791146054366907
-0.5902081764274157,1.355891449389365,-0.2562683269460372
-0.5902081764274157,1.355891449389365,-0.5672851671666929
-0.5902081764274157,1.355891449389365,0.7888512576716817
-0.5902081764274157,1.355891449389365,-0.3842969848375935
-0.5902081764274157,1.355891449389365,-0.8648984120051073
-0.5902081764274157,-0.10791146054366907,-0.3842969848375935
-0.5902081764274157,-0.10791146054366907,-0.8648984120051073
-0.5902081764274157,-0.10791146054366907,-0.2562683269460372
-0.5902081764274157,-0.10791146054366907,-0.5672851671666929
-0.5902081764274157,-0.10791146054366907,0.7888512576716817
-0.5902081764274157,-0.2562683269460372,-0.3842969848375935
-0.5902081764274157,-0.2562683269460372,-0.8648984120051073
-0.5902081764274157,-0.2562683269460372,-0.5672851671666929
-0.5902081764274157,-0.2562683269460372,0.7888512576716817
-0.5902081764274157,-0.5672851671666929,-0.3842969848375935
-0.5902081764274157,-0.5672851671666929,-0.8648984120051073
-0.5902081764274157,-0.5672851671666929,0.7888512576716817
-0.5902081764274157,0.7888512576716817,-0.3842969848375935
-0.5902081764274157,0.7888512576716817,-0.8648984120051073
-0.5902081764274157,-0.3842969848375935,-0.8648984120051073
0.3718591801184558,1.0622779287112798,1.355891449389365
0.3718591801184558,1.0622779287112798,-0.10791146054366907
0.3718591801184558,1.0622779287112798,-0.2562683269460372
0.3718591801184558,1.0622779287112798,-0.5672851671666929
0.3718591801184558,1.0622779287112798,0.7888512576716817
0.3718591801184558,1.0622779287112798,-0.3842969848375935
0.3718591801184558,1.0622779287112798,-0.8648984120051073
0.3718591801184558,1.355891449389365,-0.10791146054366907
0.3718591801184558,1.355891449389365,-0.2562683269460372
0.3718591801184558,1.355891449389365,-0.5672851671666929
0.3718591801184558,1.355891449389365,0.7888512576716817
0.3718591801184558,1.355891449389365,-0.3842969848375935
0.3718591801184558,1.355891449389365,-0.8648984120051073
0.3718591801184558,-0.10791146054366907,-0.3842969848375935
0.3718591801184558,-0.10791146054366907,-0.8648984120051073
0.3718591801184558,-0.10791146054366907,-0.2562683269460372
0.3718591801184558,-0.10791146054366907,-0.5672851671666929
0.3718591801184558,-0.10791146054366907,0.7888512576716817
0.3718591801184558,-0.2562683269460372,-0.3842969848375935
0.3718591801184558,-0.2562683269460372,-0.8648984120051073
0.3718591801184558,-0.2562683269460372,-0.5672851671666929
0.3718591801184558,-0.2562683269460372,0.7888512576716817
0.3718591801184558,-0.5672851671666929,-0.3842969848375935
0.3718591801184558,-0.5672851671666929,-0.8648984120051073
0.3718591801184558,-0.5672851671666929,0.7888512576716817
0.3718591801184558,0.7888512576716817,-0.3842969848375935
0.3718591801184558,0.7888512576716817,-0.8648984120051073
0.3718591801184558,-0.3842969848375935,-0.8648984120051073
1.0622779287112798,1.355891449389365,-0.10791146054366907
1.0622779287112798,1.355891449389365,-0.2562683269460372
1.0622779287112798,1.355891449389365,-0.5672851671666929
1.0622779287112798,1.355891449389365,0.7888512576716817
1.0622779287112798,1.355891449389365,-0.3842969848375935
1.0622779287112798,1.355891449389365,-0.8648984120051073
1.0622779287112798,-0.10791146054366907,-0.3842969848375935
1.0622779287112798,-0.10791146054366907,-0.8648984120051073
1.0622779287112798,-0.10791146054366907,-0.2562683269460372
1.0622779287112798,-0.10791146054366907,-0.5672851671666929
1.0622779287112798,-0.10791146054366907,0.7888512576716817
1.0622779287112798,-0.2562683269460372,-0.3842969848375935
1.0622779287112798,-0.2562683269460372,-0.8648984120051073
1.0622779287112798,-0.2562683269460372,-0.5672851671666929
1.0622779287112798,-0.2562683269460372,0.7888512576716817
1.0622779287112798,-0.5672851671666929,-0.3842969848375935
1.0622779287112798,-0.5672851671666929,-0.8648984120051073
1.0622779287112798,-0.5672851671666929,0.7888512576716817
1.0622779287112798,0.7888512576716817,-0.3842969848375935
1.0622779287112798,0.7888512576716817,-0.8648984120051073
1.0622779287112798,-0.3842969848375935,-0.8648984120051073
1.355891449389365,-0.10791146054366907,-0.3842969848375935
1.355891449389365,-0.10791146054366907,-0.8648984120051073
1.355891449389365,-0.10791146054366907,-0.2562683269460372
1.355891449389365,-0.10791146054366907,-0.5672851671666929
1.355891449389365,-0.10791146054366907,0.7888512576716817
1.355891449389365,-0.2562683269460372,-0.3842969848375935
1.355891449389365,-0.2562683269460372,-0.8648984120051073
1.355891449389365,-0.2562683269460372,-0.5672851671666929
1.355891449389365,-0.2562683269460372,0.7888512576716817
1.355891449389365,-0.5672851671666929,-0.3842969848375935
1.355891449389365,-0.5672851671666929,-0.8648984120051073
1.355891449389365,-0.5672851671666929,0.7888512576716817
1.355891449389365,0.7888512576716817,-0.3842969848375935
1.355891449389365,0.7888512576716817,-0.8648984120051073
1.355891449389365,-0.3842969848375935,-0.8648984120051073
-0.10791146054366907,-0.3842969848375935,-0.8648984120051073
-0.10791146054366907,-0.2562683269460372,-0.3842969848375935
-0.10791146054366907,-0.2562683269460372,-0.8648984120051073
-0.10791146054366907,-0.2562683269460372,-0.5672851671666929
-0.10791146054366907,-0.2562683269460372,0.7888512576716817
-0.10791146054366907,-0.5672851671666929,-0.3842969848375935
-0.10791146054366907,-0.5672851671666929,-0.8648984120051073
-0.10791146054366907,-0.5672851671666929,0.7888512576716817
-0.10791146054366907,0.7888512576716817,-0.3842969848375935
-0.10791146054366907,0.7888512576716817,-0.8648984120051073
-0.2562683269460372,-0.3842969848375935,-0.8648984120051073
-0.2562683269460372,-0.5672851671666929,-0.3842969848375935
-0.2562683269460372,-0.5672851671666929,-0.8648984120051073
-0.2562683269460372,-0.5672851671666929,0.7888512576716817
-0.2562683269460372,0.7888512576716817,-0.3842969848375935
-0.2562683269460372,0.7888512576716817,-0.8648984120051073
-0.5672851671666929,-0.3842969848375935,-0.8648984120051073
-0.5672851671666929,0.7888512576716817,-0.3842969848375935
-0.5672851671666929,0.7888512576716817,-0.8648984120051073
0.7888512576716817,-0.3842969848375935,-0.8648984120051073
