0,1,2
0.12443127074703005,0.7003130295821962,-1.1670916669551672
0.12443127074703005,0.7003130295821962,-0.1554759905345484
0.12443127074703005,0.7003130295821962,2.0691788831167393
0.12443127074703005,0.7003130295821962,0.21857505038349473
0.12443127074703005,0.7003130295821962,1.1975078935230996
0.12443127074703005,0.7003130295821962,-1.1426261952253378
0.12443127074703005,0.7003130295821962,0.27823347294631356
0.12443127074703005,0.7003130295821962,-1.1833126156769385
0.12443127074703005,-1.1670916669551672,-0.1554759905345484
0.12443127074703005,-1.1670916669551672,2.0691788831167393
0.12443127074703005,-1.1670916669551672,0.21857505038349473
0.12443127074703005,-1.1670916669551672,1.1975078935230996
0.12443127074703005,-1.1670916669551672,-1.1426261952253378
0.12443127074703005,-1.1670916669551672,0.27823347294631356
0.12443127074703005,-1.1670916669551672,-1.1833126156769385
0.12443127074703005,-0.1554759905345484,2.0691788831167393
0.12443127074703005,-0.1554759905345484,0.21857505038349473
0.12443127074703005,-0.1554759905345484,1.1975078935230996
0.12443127074703005,-0.1554759905345484,-1.1426261952253378
0.12443127074703005,-0.1554759905345484,0.27823347294631356
0.12443127074703005,-0.1554759905345484,-1.1833126156769385
0.12443127074703005,2.0691788831167393,0.27823347294631356
0.12443127074703005,2.0691788831167393,-1.1833126156769385
0.12443127074703005,2.0691788831167393,0.21857505038349473
0.12443127074703005,2.0691788831167393,1.1975078935230996
0.12443127074703005,2.0691788831167393,-1.1426261952253378
0.12443127074703005,0.21857505038349473,0.27823347294631356
0.12443127074703005,0.21857505038349473,-1.1833126156769385
0.12443127074703005,0.21857505038349473,1.1975078935230996
0.12443127074703005,0.21857505038349473,-1.1426261952253378
0.12443127074703005,1.1975078935230996,0.27823347294631356
0.12443127074703005,1.1975078935230996,-1.1833126156769385
0.12443127074703005,1.1975078935230996,-1.1426261952253378
0.12443127074703005,-1.1426261952253378,0.27823347294631356
0.12443127074703005,-1.1426261952253378,-1.1833126156769385
0.12443127074703005,0.27823347294631356,-1.1833126156769385
0.7003130295821962,-1.1670916669551672,-0.1554759905345484
0.7003130295821962,-1.1670916669551672,2.0691788831167393
0.7003130295821962,-1.1670916669551672,0.21857505038349473
0.7003130295821962,-1.1670916669551672,1.1975078935230996
0.7003130295821962,-1.1670916669551672,-1.1426261952253378
0.7003130295821962,-1.1670916669551672,0.27823347294631356
0.7003130295821962,-1.1670916669551672,-1.1833126156769385
0.7003130295821962,-0.1554759905345484,2.0691788831167393
0.7003130295821962,-0.1554759905345484,0.21857505038349473
0.7003130295821962,-0.1554759905345484,1.1975078935230996
0.7003130295821962,-0.1554759905345484,-1.1426261952253378
0.7003130295821962,-0.1554759905345484,0.27823347294631356
0.7003130295821962,-0.1554759905345484,-1.1833126156769385
0.7003130295821962,2.0691788831167393,0.27823347294631356
0.7003130295821962,2.0691788831167393,-1.1833126156769385
0.7003130295821962,2.0691788831167393,0.21857505038349473
0.7003130295821962,2.0691788831167393,1.1975078935230996
0.7003130295821962,2.0691788831167393,-1.1426261952253378
0.7003130295821962,0.21857505038349473,0.27823347294631356
0.7003130295821962,0.21857505038349473,-1.1833126156769385
0.7003130295821962,0.21857505038349473,1.1975078935230996
0.7003130295821962,0.21857505038349473,-1.1426261952253378
0.7003130295821962,1.1975078935230996,0.27823347294631356
0.7003130295821962,1.1975078935230996,-1.1833126156769385
0.7003130295821962,1.1975078935230996,-1.1426261952253378
0.7003130295821962,-1.1426261952253378,0.27823347294631356
0.7003130295821962,-1.1426261952253378,-1.1833126156769385
0.7003130295821962,0.27823347294631356,-1.1833126156769385
-1.1670916669551672,-0.1554759905345484,2.0691788831167393
-1.1670916669551672,-0.1554759905345484,0.21857505038349473
-1.1670916669551672,-0.1554759905345484,1.1975078935230996
-1.1670916669551672,-0.1554759905345484,-1.1426261952253378
-1.1670916669551672,-0.1554759905345484,0.27823347294631356
-1.1670916669551672,-0.1554759905345484,-1.1833126156769385
-1.1670916669551672,2.0691788831167393,0.27823347294631356
-1.1670916669551672,2.0691788831167393,-1.1833126156769385
-1.1670916669551672,2.0691788831167393,0.21857505038349473
-1.1670916669551672,2.0691788831167393,1.1975078935230996
-1.1670916669551672,2.0691788831167393,-1.1426261952253378
-1.1670916669551672,0.21857505038349473,0.27823347294631356
-1.1670916669551672,0.21857505038349473,-1.1833126156769385
-1.1670916669551672,0.21857505038349473,1.1975078935230996
-1.1670916669551672,0.21857505038349473,-1.1426261952253378
-1.1670916669551672,1.1975078935230996,0.27823347294631356
-1.1670916669551672,1.1975078935230996,-1.1833126156769385
-1.1670916669551672,1.1975078935230996,-1.1426261952253378
-1.1670916669551672,-1.1426261952253378,0.27823347294631356
-1.1670916669551672,-1.1426261952253378,-1.1833126156769385
-1.1670916669551672,0.27823347294631356,-1.1833126156769385
-0.1554759905345484,2.0691788831167393,0.27823347294631356
-0.1554759905345484,2.0691788831167393,-1.1833126156769385
-0.1554759905345484,2.0691788831167393,0.21857505038349473
-0.1554759905345484,2.0691788831167393,1.1975078935230996
-0.1554759905345484,2.0691788831167393,-1.1426261952253378
-0.1554759905345484,0.21857505038349473,0.27823347294631356
-0.1554759905345484,0.21857505038349473,-1.1833126156769385
-0.1554759905345484,0.21857505038349473,1.1975078935230996
-0.1554759905345484,0.21857505038349473,-1.1426261952253378
-0.1554759905345484,1.1975078935230996,0.27823347294631356
-0.1554759905345484,1.1975078935230996,-1.1833126156769385
-0.1554759905345484,1.1975078935230996,-1.1426261952253378
-0.1554759905345484,-1.1426261952253378,0.27823347294631356
-0.1554759905345484,-1.1426261952253378,-1.1833126156769385
-0.1554759905345484,0.27823347294631356,-1.1833126156769385
2.0691788831167393,0.27823347294631356,-1.1833126156769385
2.0691788831167393,0.21857505038349473,0.27823347294631356
2.0691788831167393,0.21857505038349473,-1.1833126156769385
2.0691788831167393,0.21857505038349473,1.1975078935230996
2.0691788831167393,0.21857505038349473,-1.1426261952253378
2.0691788831167393,1.1975078935230996,0.27823347294631356
2.0691788831167393,1.1975078935230996,-1.1833126156769385
2.0691788831167393,1.1975078935230996,-1.1426261952253378
2.0691788831167393,-1.1426261952253378,0.27823347294631356
2.0691788831167393,-1.1426261952253378,-1.1833126156769385
0.21857505038349473,0.27823347294631356,-1.1833126156769385
0.21857505038349473,1.1975078935230996,0.27823347294631356
0.21857505038349473,1.1975078935230996,-1.1833126156769385
0.21857505038349473,1.1975078935230996,-1.1426261952253378
0.21857505038349473,-1.1426261952253378,0.27823347294631356
0.21857505038349473,-1.1426261952253378,-1.1833126156769385
1.1975078935230996,0.27823347294631356,-1.1833126156769385
1.1975078935230996,-1.1426261952253378,0.27823347294631356
1.1975078935230996,-1.1426261952253378,-1.1833126156769385
-1.1426261952253378,0.27823347294631356,-1.1833126156769385
