0,1,2
0.1824849187661847,0.062026471164556465,0.812562150082357
0.1824849187661847,0.062026471164556465,0.08923514554747887
0.1824849187661847,0.062026471164556465,-0.6481546485343083
0.1824849187661847,0.062026471164556465,-2.299797495467899
0.1824849187661847,0.062026471164556465,0.6937587791621612
0.1824849187661847,0.062026471164556465,0.20715186322069462
0.1824849187661847,0.062026471164556465,-0.1923738001190966
0.1824849187661847,0.062026471164556465,1.0255192621306632
0.1824849187661847,0.812562150082357,0.08923514554747887
0.1824849187661847,0.812562150082357,-0.6481546485343083
0.1824849187661847,0.812562150082357,-2.299797495467899
0.1824849187661847,0.812562150082357,0.6937587791621612
0.1824849187661847,0.812562150082357,0.20715186322069462
0.1824849187661847,0.812562150082357,-0.1923738001190966
0.1824849187661847,0.812562150082357,1.0255192621306632
0.1824849187661847,0.08923514554747887,-0.6481546485343083
0.1824849187661847,0.08923514554747887,-2.299797495467899
0.1824849187661847,0.08923514554747887,0.6937587791621612
0.1824849187661847,0.08923514554747887,0.20715186322069462
0.1824849187661847,0.08923514554747887,-0.1923738001190966
0.1824849187661847,0.08923514554747887,1.0255192621306632
0.1824849187661847,-0.6481546485343083,-0.1923738001190966
0.1824849187661847,-0.6481546485343083,1.0255192621306632
0.1824849187661847,-0.6481546485343083,-2.299797495467899
0.1824849187661847,-0.6481546485343083,0.6937587791621612
0.1824849187661847,-0.6481546485343083,0.20715186322069462
0.1824849187661847,-2.299797495467899,-0.1923738001190966
0.1824849187661847,-2.299797495467899,1.0255192621306632
0.1824849187661847,-2.299797495467899,0.6937587791621612
0.1824849187661847,-2.299797495467899,0.20715186322069462
0.1824849187661847,0.6937587791621612,-0.1923738001190966
0.1824849187661847,0.6937587791621612,1.0255192621306632
0.1824849187661847,0.6937587791621612,0.20715186322069462
0.1824849187661847,0.20715186322069462,-0.1923738001190966
0.1824849187661847,0.20715186322069462,1.0255192621306632
0.1824849187661847,-0.1923738001190966,1.0255192621306632
0.062026471164556465,0.812562150082357,0.08923514554747887
0.062026471164556465,0.812562150082357,-0.6481546485343083
0.062026471164556465,0.812562150082357,-2.299797495467899
0.062026471164556465,0.812562150082357,0.6937587791621612
0.062026471164556465,0.812562150082357,0.20715186322069462
0.062026471164556465,0.812562150082357,-0.1923738001190966
0.062026471164556465,0.812562150082357,1.0255192621306632
0.062026471164556465,0.08923514554747887,-0.6481546485343083
0.062026471164556465,0.08923514554747887,-2.299797495467899
0.062026471164556465,0.08923514554747887,0.6937587791621612
0.062026471164556465,0.08923514554747887,0.20715186322069462
0.062026471164556465,0.08923514554747887,-0.1923738001190966
0.062026471164556465,0.08923514554747887,1.0255192621306632
0.062026471164556465,-0.6481546485343083,-0.1923738001190966
0.062026471164556465,-0.6481546485343083,1.0255192621306632
0.062026471164556465,-0.6481546485343083,-2.299797495467899
0.062026471164556465,-0.6481546485343083,0.6937587791621612
0.062026471164556465,-0.6481546485343083,0.20715186322069462
0.062026471164556465,-2.299797495467899,-0.1923738001190966
0.062026471164556465,-2.299797495467899,1.0255192621306632
0.062026471164556465,-2.299797495467899,0.6937587791621612
0.062026471164556465,-2.299797495467899,0.20715186322069462
0.062026471164556465,0.6937587791621612,-0.1923738001190966
0.062026471164556465,0.6937587791621612,1.0255192621306632
0.062026471164556465,0.6937587791621612,0.20715186322069462
0.062026471164556465,0.20715186322069462,-0.1923738001190966
0.062026471164556465,0.20715186322069462,1.0255192621306632
0.062026471164556465,-0.1923738001190966,1.0255192621306632
0.812562150082357,0.08923514554747887,-0.6481546485343083
0.812562150082357,0.08923514554747887,-2.299797495467899
0.812562150082357,0.08923514554747887,0.6937587791621612
0.812562150082357,0.08923514554747887,0.20715186322069462
0.812562150082357,0.08923514554747887,-0.1923738001190966
0.812562150082357,0.08923514554747887,1.0255192621306632
0.812562150082357,-0.6481546485343083,-0.1923738001190966
0.812562150082357,-0.6481546485343083,1.0255192621306632
0.812562150082357,-0.6481546485343083,-2.299797495467899
0.812562150082357,-0.6481546485343083,0.6937587791621612
0.812562150082357,-0.6481546485343083,0.20715186322069462
0.812562150082357,-2.299797495467899,-0.1923738001190966
0.812562150082357,-2.299797495467899,1.0255192621306632
0.812562150082357,-2.299797495467899,0.6937587791621612
0.812562150082357,-2.299797495467899,0.20715186322069462
0.812562150082357,0.6937587791621612,-0.1923738001190966
0.812562150082357,0.6937587791621612,1.0255192621306632
0.812562150082357,0.6937587791621612,0.20715186322069462
0.812562150082357,0.20715186322069462,-0.1923738001190966
0.812562150082357,0.20715186322069462,1.0255192621306632
0.812562150082357,-0.1923738001190966,1.0255192621306632
0.08923514554747887,-0.6481546485343083,-0.1923738001190966
0.08923514554747887,-0.6481546485343083,1.0255192621306632
0.08923514554747887,-0.6481546485343083,-2.299797495467899
0.08923514554747887,-0.6481546485343083,0.6937587791621612
0.08923514554747887,-0.6481546485343083,0.20715186322069462
0.08923514554747887,-2.299797495467899,-0.1923738001190966
0.08923514554747887,-2.299797495467899,1.0255192621306632
0.08923514554747887,-2.299797495467899,0.6937587791621612
0.08923514554747887,-2.299797495467899,0.20715186322069462
0.08923514554747887,0.6937587791621612,-0.1923738001190966
0.08923514554747887,0.6937587791621612,1.0255192621306632
0.08923514554747887,0.6937587791621612,0.20715186322069462
0.08923514554747887,0.20715186322069462,-0.1923738001190966
0.08923514554747887,0.20715186322069462,1.0255192621306632
0.08923514554747887,-0.1923738001190966,1.0255192621306632
-0.6481546485343083,-0.1923738001190966,1.0255192621306632
-0.6481546485343083,-2.299797495467899,-0.1923738001190966
-0.6481546485343083,-2.299797495467899,1.0255192621306632
-0.6481546485343083,-2.299797495467899,0.6937587791621612
-0.6481546485343083,-2.299797495467899,0.20715186322069462
-0.6481546485343083,0.6937587791621612,-0.1923738001190966
-0.6481546485343083,0.6937587791621612,1.0255192621306632
-0.6481546485343083,0.6937587791621612,0.20715186322069462
-0.6481546485343083,0.20715186322069462,-0.1923738001190966
-0.6481546485343083,0.20715186322069462,1.0255192621306632
-2.299797495467899,-0.1923738001190966,1.0255192621306632
-2.299797495467899,0.6937587791621612,-0.1923738001190966
-2.299797495467899,0.6937587791621612,1.0255192621306632
-2.299797495467899,0.6937587791621612,0.20715186322069462
-2.299797495467899,0.20715186322069462,-0.1923738001190966
-2.299797495467899,0.20715186322069462,1.0255192621306632
0.6937587791621612,-0.1923738001190966,1.0255192621306632
0.6937587791621612,0.20715186322069462,-0.1923738001190966
0.6937587791621612,0.20715186322069462,1.0255192621306632
0.20715186322069462,-0.1923738001190966,1.0255192621306632
