0,1,2
-0.14073890510807324,-0.26892188705484465,0.535768546863638
-0.14073890510807324,-0.26892188705484465,1.017022166505543
-0.14073890510807324,-0.26892188705484465,-1.9989430582718732
-0.14073890510807324,-0.26892188705484465,0.27089556235514184
-0.14073890510807324,-0.26892188705484465,-0.1786807568076414
-0.14073890510807324,-0.26892188705484465,0.24884625266640956
-0.14073890510807324,-0.26892188705484465,-0.3248725279627133
-0.14073890510807324,-0.26892188705484465,0.7216306082511892
-0.14073890510807324,0.535768546863638,1.017022166505543
-0.14073890510807324,0.535768546863638,-1.9989430582718732
-0.14073890510807324,0.535768546863638,0.27089556235514184
-0.14073890510807324,0.535768546863638,-0.1786807568076414
-0.14073890510807324,0.535768546863638,0.24884625266640956
-0.14073890510807324,0.535768546863638,-0.3248725279627133
-0.14073890510807324,0.535768546863638,0.7216306082511892
-0.14073890510807324,1.017022166505543,-1.9989430582718732
-0.14073890510807324,1.017022166505543,0.27089556235514184
-0.14073890510807324,1.017022166505543,-0.1786807568076414
-0.14073890510807324,1.017022166505543,0.24884625266640956
-0.14073890510807324,1.017022166505543,-0.3248725279627133
-0.14073890510807324,1.017022166505543,0.7216306082511892
-0.14073890510807324,-1.9989430582718732,-0.3248725279627133
-0.14073890510807324,-1.9989430582718732,0.7216306082511892
-0.14073890510807324,-1.9989430582718732,0.27089556235514184
-0.14073890510807324,-1.9989430582718732,-0.1786807568076414
-0.14073890510807324,-1.9989430582718732,0.24884625266640956
-0.14073890510807324,0.27089556235514184,-0.3248725279627133
-0.14073890510807324,0.27089556235514184,0.7216306082511892
-0.14073890510807324,0.27089556235514184,-0.1786807568076414
-0.14073890510807324,0.27089556235514184,0.24884625266640956
-0.14073890510807324,-0.1786807568076414,-0.3248725279627133
-0.14073890510807324,-0.1786807568076414,0.7216306082511892
-0.14073890510807324,-0.1786807568076414,0.24884625266640956
-0.14073890510807324,0.24884625266640956,-0.3248725279627133
-0.14073890510807324,0.24884625266640956,0.7216306082511892
-0.14073890510807324,-0.3248725279627133,0.7216306082511892
-0.26892188705484465,0.535768546863638,1.017022166505543
-0.26892188705484465,0.535768546863638,-1.9989430582718732
-0.26892188705484465,0.535768546863638,0.27089556235514184
-0.26892188705484465,0.535768546863638,-0.1786807568076414
-0.26892188705484465,0.535768546863638,0.24884625266640956
-0.26892188705484465,0.535768546863638,-0.3248725279627133
-0.26892188705484465,0.535768546863638,0.7216306082511892
-0.26892188705484465,1.017022166505543,-1.9989430582718732
-0.26892188705484465,1.017022166505543,0.27089556235514184
-0.26892188705484465,1.017022166505543,-0.1786807568076414
-0.26892188705484465,1.017022166505543,0.24884625266640956
-0.26892188705484465,1.017022166505543,-0.3248725279627133
-0.26892188705484465,1.017022166505543,0.7216306082511892
-0.26892188705484465,-1.9989430582718732,-0.3248725279627133
-0.26892188705484465,-1.9989430582718732,0.7216306082511892
-0.26892188705484465,-1.9989430582718732,0.27089556235514184
-0.26892188705484465,-1.9989430582718732,-0.1786807568076414
-0.26892188705484465,-1.9989430582718732,0.24884625266640956
-0.26892188705484465,0.27089556235514184,-0.3248725279627133
-0.26892188705484465,0.27089556235514184,0.7216306082511892
-0.26892188705484465,0.27089556235514184,-0.1786807568076414
-0.26892188705484465,0.27089556235514184,0.24884625266640956
-0.26892188705484465,-0.1786807568076414,-0.3248725279627133
-0.26892188705484465,-0.1786807568076414,0.7216306082511892
-0.26892188705484465,-0.1786807568076414,0.24884625266640956
-0.26892188705484465,0.24884625266640956,-0.3248725279627133
-0.26892188705484465,0.24884625266640956,0.7216306082511892
-0.26892188705484465,-0.3248725279627133,0.7216306082511892
0.535768546863638,1.017022166505543,-1.9989430582718732
0.535768546863638,1.017022166505543,0.27089556235514184
0.535768546863638,1.017022166505543,-0.1786807568076414
0.535768546863638,1.017022166505543,0.24884625266640956
0.535768546863638,1.017022166505543,-0.3248725279627133
0.535768546863638,1.017022166505543,0.7216306082511892
0.535768546863638,-1.9989430582718732,-0.3248725279627133
0.535768546863638,-1.9989430582718732,0.7216306082511892
0.535768546863638,-1.9989430582718732,0.27089556235514184
0.535768546863638,-1.9989430582718732,-0.1786807568076414
0.535768546863638,-1.9989430582718732,0.24884625266640956
0.535768546863638,0.27089556235514184,-0.3248725279627133
0.535768546863638,0.27089556235514184,0.7216306082511892
0.535768546863638,0.27089556235514184,-0.1786807568076414
0.535768546863638,0.27089556235514184,0.24884625266640956
0.535768546863638,-0.1786807568076414,-0.3248725279627133
0.535768546863638,-0.1786807568076414,0.7216306082511892
0.535768546863638,-0.1786807568076414,0.24884625266640956
0.535768546863638,0.24884625266640956,-0.3248725279627133
0.535768546863638,0.24884625266640956,0.7216306082511892
0.535768546863638,-0.3248725279627133,0.7216306082511892
1.017022166505543,-1.9989430582718732,-0.3248725279627133
1.017022166505543,-1.9989430582718732,0.7216306082511892
1.017022166505543,-1.9989430582718732,0.27089556235514184
1.017022166505543,-1.9989430582718732,-0.1786807568076414
1.017022166505543,-1.9989430582718732,0.24884625266640956
1.017022166505543,0.27089556235514184,-0.3248725279627133
1.017022166505543,0.27089556235514184,0.7216306082511892
1.017022166505543,0.27089556235514184,-0.1786807568076414
1.017022166505543,0.27089556235514184,0.24884625266640956
1.017022166505543,-0.1786807568076414,-0.3248725279627133
1.017022166505543,-0.1786807568076414,0.7216306082511892
1.017022166505543,-0.1786807568076414,0.24884625266640956
1.017022166505543,0.24884625266640956,-0.3248725279627133
1.017022166505543,0.24884625266640956,0.7216306082511892
1.017022166505543,-0.3248725279627133,0.7216306082511892
-1.9989430582718732,-0.3248725279627133,0.7216306082511892
-1.9989430582718732,0.27089556235514184,-0.3248725279627133
-1.9989430582718732,0.27089556235514184,0.7216306082511892
-1.9989430582718732,0.27089556235514184,-0.1786807568076414
-1.9989430582718732,0.27089556235514184,0.24884625266640956
-1.9989430582718732,-0.1786807568076414,-0.3248725279627133
-1.9989430582718732,-0.1786807568076414,0.7216306082511892
-1.9989430582718732,-0.1786807568076414,0.24884625266640956
-1.9989430582718732,0.24884625266640956,-0.3248725279627133
-1.9989430582718732,0.24884625266640956,0.7216306082511892
0.27089556235514184,-0.3248725279627133,0.7216306082511892
0.27089556235514184,-0.1786807568076414,-0.3248725279627133
0.27089556235514184,-0.1786807568076414,0.7216306082511892
0.27089556235514184,-0.1786807568076414,0.24884625266640956
0.27089556235514184,0.24884625266640956,-0.3248725279627133
0.27089556235514184,0.24884625266640956,0.7216306082511892
-0.1786807568076414,-0.3248725279627133,0.7216306082511892
-0.1786807568076414,0.24884625266640956,-0.3248725279627133
-0.1786807568076414,0.24884625266640956,0.7216306082511892
0.24884625266640956,-0.3248725279627133,0.7216306082511892
