0,1,2
-0.8455836379501076,-1.5274726641797844,1.3694226538580223
-0.8455836379501076,-1.5274726641797844,0.05839557676421724
-0.8455836379501076,-1.5274726641797844,0.9260044498045846
-0.8455836379501076,-1.5274726641797844,-0.5511431155329879
-0.8455836379501076,-1.5274726641797844,-0.7079934383557344
-0.8455836379501076,-1.5274726641797844,-1.192191415186735
-0.8455836379501076,-1.5274726641797844,-0.21113655104712317
-0.8455836379501076,-1.5274726641797844,-1.0951983623801747
-0.8455836379501076,1.3694226538580223,0.05839557676421724
-0.8455836379501076,1.3694226538580223,0.9260044498045846
-0.8455836379501076,1.3694226538580223,-0.5511431155329879
-0.8455836379501076,1.3694226538580223,-0.7079934383557344
-0.8455836379501076,1.3694226538580223,-1.192191415186735
-0.8455836379501076,1.3694226538580223,-0.21113655104712317
-0.8455836379501076,1.3694226538580223,-1.0951983623801747
-0.8455836379501076,0.05839557676421724,0.9260044498045846
-0.8455836379501076,0.05839557676421724,-0.5511431155329879
-0.8455836379501076,0.05839557676421724,-0.7079934383557344
-0.8455836379501076,0.05839557676421724,-1.192191415186735
-0.8455836379501076,0.05839557676421724,-0.21113655104712317
-0.8455836379501076,0.05839557676421724,-1.0951983623801747
-0.8455836379501076,0.9260044498045846,-0.21113655104712317
-0.8455836379501076,0.9260044498045846,-1.0951983623801747
-0.8455836379501076,0.9260044498045846,-0.5511431155329879
-0.8455836379501076,0.9260044498045846,-0.7079934383557344
-0.8455836379501076,0.9260044498045846,-1.192191415186735
-0.8455836379501076,-0.5511431155329879,-0.21113655104712317
-0.8455836379501076,-0.5511431155329879,-1.0951983623801747
-0.8455836379501076,-0.5511431155329879,-0.7079934383557344
-0.8455836379501076,-0.5511431155329879,-1.192191415186735
-0.8455836379501076,-0.7079934383557344,-0.21113655104712317
-0.8455836379501076,-0.7079934383557344,-1.0951983623801747
-0.8455836379501076,-0.7079934383557344,-1.192191415186735
-0.8455836379501076,-1.192191415186735,-0.21113655104712317
-0.8455836379501076,-1.192191415186735,-1.0951983623801747
-0.8455836379501076,-0.21113655104712317,-1.0951983623801747
-1.5274726641797844,1.3694226538580223,0.05839557676421724
-1.5274726641797844,1.3694226538580223,0.9260044498045846
-1.5274726641797844,1.3694226538580223,-0.5511431155329879
-1.5274726641797844,1.3694226538580223,-0.7079934383557344
-1.5274726641797844,1.3694226538580223,-1.192191415186735
-1.5274726641797844,1.3694226538580223,-0.21113655104712317
-1.5274726641797844,1.3694226538580223,-1.0951983623801747
-1.5274726641797844,0.05839557676421724,0.9260044498045846
-1.5274726641797844,0.05839557676421724,-0.5511431155329879
-1.5274726641797844,0.05839557676421724,-0.7079934383557344
-1.5274726641797844,0.05839557676421724,-1.192191415186735
-1.5274726641797844,0.05839557676421724,-0.21113655104712317
-1.5274726641797844,0.05839557676421724,-1.0951983623801747
-1.5274726641797844,0.9260044498045846,-0.21113655104712317
-1.5274726641797844,0.9260044498045846,-1.0951983623801747
-1.5274726641797844,0.9260044498045846,-0.5511431155329879
-1.5274726641797844,0.9260044498045846,-0.7079934383557344
-1.5274726641797844,0.9260044498045846,-1.192191415186735
-1.5274726641797844,-0.5511431155329879,-0.21113655104712317
-1.5274726641797844,-0.5511431155329879,-1.0951983623801747
-1.5274726641797844,-0.5511431155329879,-0.7079934383557344
-1.5274726641797844,-0.5511431155329879,-1.192191415186735
-1.5274726641797844,-0.7079934383557344,-0.21113655104712317
-1.5274726641797844,-0.7079934383557344,-1.0951983623801747
-1.5274726641797844,-0.7079934383557344,-1.192191415186735
-1.5274726641797844,-1.192191415186735,-0.21113655104712317
-1.5274726641797844,-1.192191415186735,-1.0951983623801747
-1.5274726641797844,-0.21113655104712317,-1.0951983623801747
1.3694226538580223,0.05839557676421724,0.9260044498045846
1.3694226538580223,0.05839557676421724,-0.5511431155329879
1.3694226538580223,0.05839557676421724,-0.7079934383557344
1.3694226538580223,0.05839557676421724,-1.192191415186735
1.3694226538580223,0.05839557676421724,-0.21113655104712317
1.3694226538580223,0.05839557676421724,-1.0951983623801747
1.3694226538580223,0.9260044498045846,-0.21113655104712317
1.3694226538580223,0.9260044498045846,-1.0951983623801747
1.3694226538580223,0.9260044498045846,-0.5511431155329879
1.3694226538580223,0.9260044498045846,-0.7079934383557344
1.3694226538580223,0.9260044498045846,-1.192191415186735
1.3694226538580223,-0.5511431155329879,-0.21113655104712317
1.3694226538580223,-0.5511431155329879,-1.0951983623801747
1.3694226538580223,-0.5511431155329879,-0.7079934383557344
1.3694226538580223,-0.5511431155329879,-1.192191415186735
1.3694226538580223,-0.7079934383557344,-0.21113655104712317
1.3694226538580223,-0.7079934383557344,-1.0951983623801747
1.3694226538580223,-0.7079934383557344,-1.192191415186735
1.3694226538580223,-1.192191415186735,-0.21113655104712317
1.3694226538580223,-1.192191415186735,-1.0951983623801747
1.3694226538580223,-0.21113655104712317,-1.0951983623801747
0.05839557676421724,0.9260044498045846,-0.21113655104712317
0.05839557676421724,0.9260044498045846,-1.0951983623801747
0.05839557676421724,0.9260044498045846,-0.5511431155329879
0.05839557676421724,0.9260044498045846,-0.7079934383557344
0.05839557676421724,0.9260044498045846,-1.192191415186735
0.05839557676421724,-0.5511431155329879,-0.21113655104712317
0.05839557676421724,-0.5511431155329879,-1.0951983623801747
0.05839557676421724,-0.5511431155329879,-0.7079934383557344
0.05839557676421724,-0.5511431155329879,-1.192191415186735
0.05839557676421724,-0.7079934383557344,-0.21113655104712317
0.05839557676421724,-0.7079934383557344,-1.0951983623801747
0.05839557676421724,-0.7079934383557344,-1.192191415186735
0.05839557676421724,-1.192191415186735,-0.21113655104712317
0.05839557676421724,-1.192191415186735,-1.0951983623801747
0.05839557676421724,-0.21113655104712317,-1.0951983623801747
0.9260044498045846,-0.21113655104712317,-1.0951983623801747
0.9260044498045846,-0.5511431155329879,-0.21113655104712317
0.9260044498045846,-0.5511431155329879,-1.0951983623801747
0.9260044498045846,-0.5511431155329879,-0.7079934383557344
0.9260044498045846,-0.5511431155329879,-1.192191415186735
0.9260044498045846,-0.7079934383557344,-0.21113655104712317
0.9260044498045846,-0.7079934383557344,-1.0951983623801747
0.9260044498045846,-0.7079934383557344,-1.192191415186735
0.9260044498045846,-1.192191415186735,-0.21113655104712317
0.9260044498045846,-1.192191415186735,-1.0951983623801747
-0.5511431155329879,-0.21113655104712317,-1.0951983623801747
-0.5511431155329879,-0.7079934383557344,-0.21113655104712317
-0.5511431155329879,-0.7079934383557344,-1.0951983623801747
-0.5511431155329879,-0.7079934383557344,-1.192191415186735
-0.5511431155329879,-1.192191415186735,-0.21113655104712317
-0.5511431155329879,-1.192191415186735,-1.0951983623801747
-0.7079934383557344,-0.21113655104712317,-1.0951983623801747
-0.7079934383557344,-1.192191415186735,-0.21113655104712317
-0.7079934383557344,-1.192191415186735,-1.0951983623801747
-1.192191415186735,-0.21113655104712317,-1.0951983623801747
