0,1,2
-1.646022667988652,-0.8120259136413147,-1.0886690338408
-1.646022667988652,-0.8120259136413147,-0.39083372178774795
-1.646022667988652,-0.8120259136413147,-0.5380186728323488
-1.646022667988652,-0.8120259136413147,0.41703735865407615
-1.646022667988652,-0.8120259136413147,0.2540224094536588
-1.646022667988652,-0.8120259136413147,0.8688457695202785
-1.646022667988652,-0.8120259136413147,0.1421183396786192
-1.646022667988652,-0.8120259136413147,0.09057502653617018
-1.646022667988652,-1.0886690338408,-0.39083372178774795
-1.646022667988652,-1.0886690338408,-0.5380186728323488
-1.646022667988652,-1.0886690338408,0.41703735865407615
-1.646022667988652,-1.0886690338408,0.2540224094536588
-1.646022667988652,-1.0886690338408,0.8688457695202785
-1.646022667988652,-1.0886690338408,0.1421183396786192
-1.646022667988652,-1.0886690338408,0.09057502653617018
-1.646022667988652,-0.39083372178774795,-0.5380186728323488
-1.646022667988652,-0.39083372178774795,0.41703735865407615
-1.646022667988652,-0.39083372178774795,0.2540224094536588
-1.646022667988652,-0.39083372178774795,0.8688457695202785
-1.646022667988652,-0.39083372178774795,0.1421183396786192
-1.646022667988652,-0.39083372178774795,0.09057502653617018
-1.646022667988652,-0.5380186728323488,0.1421183396786192
-1.646022667988652,-0.5380186728323488,0.09057502653617018
-1.646022667988652,-0.5380186728323488,0.41703735865407615
-1.646022667988652,-0.5380186728323488,0.2540224094536588
-1.646022667988652,-0.5380186728323488,0.8688457695202785
-1.646022667988652,0.41703735865407615,0.1421183396786192
-1.646022667988652,0.41703735865407615,0.09057502653617018
-1.646022667988652,0.41703735865407615,0.2540224094536588
-1.646022667988652,0.41703735865407615,0.8688457695202785
-1.646022667988652,0.2540224094536588,0.1421183396786192
-1.646022667988652,0.2540224094536588,0.09057502653617018
-1.646022667988652,0.2540224094536588,0.8688457695202785
-1.646022667988652,0.8688457695202785,0.1421183396786192
-1.646022667988652,0.8688457695202785,0.09057502653617018
-1.646022667988652,0.1421183396786192,0.09057502653617018
-0.8120259136413147,-1.0886690338408,-0.39083372178774795
-0.8120259136413147,-1.0886690338408,-0.5380186728323488
-0.8120259136413147,-1.0886690338408,0.41703735865407615
-0.8120259136413147,-1.0886690338408,0.2540224094536588
-0.8120259136413147,-1.0886690338408,0.8688457695202785
-0.8120259136413147,-1.0886690338408,0.1421183396786192
-0.8120259136413147,-1.0886690338408,0.09057502653617018
-0.8120259136413147,-0.39083372178774795,-0.5380186728323488
-0.8120259136413147,-0.39083372178774795,0.41703735865407615
-0.8120259136413147,-0.39083372178774795,0.2540224094536588
-0.8120259136413147,-0.39083372178774795,0.8688457695202785
-0.8120259136413147,-0.39083372178774795,0.1421183396786192
-0.8120259136413147,-0.39083372178774795,0.09057502653617018
-0.8120259136413147,-0.5380186728323488,0.1421183396786192
-0.8120259136413147,-0.5380186728323488,0.09057502653617018
-0.8120259136413147,-0.5380186728323488,0.41703735865407615
-0.8120259136413147,-0.5380186728323488,0.2540224094536588
-0.8120259136413147,-0.5380186728323488,0.8688457695202785
-0.8120259136413147,0.41703735865407615,0.1421183396786192
-0.8120259136413147,0.41703735865407615,0.09057502653617018
-0.8120259136413147,0.41703735865407615,0.2540224094536588
-0.8120259136413147,0.41703735865407615,0.8688457695202785
-0.8120259136413147,0.2540224094536588,0.1421183396786192
-0.8120259136413147,0.2540224094536588,0.09057502653617018
-0.8120259136413147,0.2540224094536588,0.8688457695202785
-0.8120259136413147,0.8688457695202785,0.1421183396786192
-0.8120259136413147,0.8688457695202785,0.09057502653617018
-0.8120259136413147,0.1421183396786192,0.09057502653617018
-1.0886690338408,-0.39083372178774795,-0.5380186728323488
-1.0886690338408,-0.39083372178774795,0.41703735865407615
-1.0886690338408,-0.39083372178774795,0.2540224094536588
-1.0886690338408,-0.39083372178774795,0.8688457695202785
-1.0886690338408,-0.39083372178774795,0.1421183396786192
-1.0886690338408,-0.39083372178774795,0.09057502653617018
-1.0886690338408,-0.5380186728323488,0.1421183396786192
-1.0886690338408,-0.5380186728323488,0.09057502653617018
-1.0886690338408,-0.5380186728323488,0.41703735865407615
-1.0886690338408,-0.5380186728323488,0.2540224094536588
-1.0886690338408,-0.5380186728323488,0.8688457695202785
-1.0886690338408,0.41703735865407615,0.1421183396786192
-1.0886690338408,0.41703735865407615,0.09057502653617018
-1.0886690338408,0.41703735865407615,0.2540224094536588
-1.0886690338408,0.41703735865407615,0.8688457695202785
-1.0886690338408,0.2540224094536588,0.1421183396786192
-1.0886690338408,0.2540224094536588,0.09057502653617018
-1.0886690338408,0.2540224094536588,0.8688457695202785
-1.0886690338408,0.8688457695202785,0.1421183396786192
-1.0886690338408,0.8688457695202785,0.09057502653617018
-1.0886690338408,0.1421183396786192,0.09057502653617018
-0.39083372178774795,-0.5380186728323488,0.1421183396786192
-0.39083372178774795,-0.5380186728323488,0.09057502653617018
-0.39083372178774795,-0.5380186728323488,0.41703735865407615
-0.39083372178774795,-0.5380186728323488,0.2540224094536588
-0.39083372178774795,-0.5380186728323488,0.8688457695202785
-0.39083372178774795,0.41703735865407615,0.1421183396786192
-0.39083372178774795,0.41703735865407615,0.09057502653617018
-0.39083372178774795,0.41703735865407615,0.2540224094536588
-0.39083372178774795,0.41703735865407615,0.8688457695202785
-0.39083372178774795,0.2540224094536588,0.1421183396786192
-0.39083372178774795,0.2540224094536588,0.09057502653617018
-0.39083372178774795,0.2540224094536588,0.8688457695202785
-0.39083372178774795,0.8688457695202785,0.1421183396786192
-0.39083372178774795,0.8688457695202785,0.09057502653617018
-0.39083372178774795,0.1421183396786192,0.09057502653617018
-0.5380186728323488,0.1421183396786192,0.09057502653617018
-0.5380186728323488,0.41703735865407615,0.1421183396786192
-0.5380186728323488,0.41703735865407615,0.09057502653617018
-0.5380186728323488,0.41703735865407615,0.2540224094536588
-0.5380186728323488,0.41703735865407615,0.8688457695202785
-0.5380186728323488,0.2540224094536588,0.1421183396786192
-0.5380186728323488,0.2540224094536588,0.09057502653617018
-0.5380186728323488,0.2540224094536588,0.8688457695202785
-0.5380186728323488,0.8688457695202785,0.1421183396786192
-0.5380186728323488,0.8688457695202785,0.09057502653617018
0.41703735865407615,0.1421183396786192,0.09057502653617018
0.41703735865407615,0.2540224094536588,0.1421183396786192
0.41703735865407615,0.2540224094536588,0.09057502653617018
0.41703735865407615,0.2540224094536588,0.8688457695202785
0.41703735865407615,0.8688457695202785,0.1421183396786192
0.41703735865407615,0.8688457695202785,0.09057502653617018
0.2540224094536588,0.1421183396786192,0.09057502653617018
0.2540224094536588,0.8688457695202785,0.1421183396786192
0.2540224094536588,0.8688457695202785,0.09057502653617018
0.8688457695202785,0.1421183396786192,0.09057502653617018
