0,1,2
-0.7348329838002303,-0.2549715876816582,1.3042060785067981
-0.7348329838002303,-0.2549715876816582,-0.31064450603487453
-0.7348329838002303,-0.2549715876816582,-0.4799796471050437
-0.7348329838002303,-0.2549715876816582,1.5289969642277104
-0.7348329838002303,-0.2549715876816582,0.10052232335755208
-0.7348329838002303,-0.2549715876816582,1.1547213406856323
-0.7348329838002303,-0.2549715876816582,1.5795464269112434
-0.7348329838002303,-0.2549715876816582,0.11247069180117236
-0.7348329838002303,1.3042060785067981,-0.31064450603487453
-0.7348329838002303,1.3042060785067981,-0.4799796471050437
-0.7348329838002303,1.3042060785067981,1.5289969642277104
-0.7348329838002303,1.3042060785067981,0.10052232335755208
-0.7348329838002303,1.3042060785067981,1.1547213406856323
-0.7348329838002303,1.3042060785067981,1.5795464269112434
-0.7348329838002303,1.3042060785067981,0.11247069180117236
-0.7348329838002303,-0.31064450603487453,-0.4799796471050437
-0.7348329838002303,-0.31064450603487453,1.5289969642277104
-0.7348329838002303,-0.31064450603487453,0.10052232335755208
-0.7348329838002303,-0.31064450603487453,1.1547213406856323
-0.7348329838002303,-0.31064450603487453,1.5795464269112434
-0.7348329838002303,-0.31064450603487453,0.11247069180117236
-0.7348329838002303,-0.4799796471050437,1.5795464269112434
-0.7348329838002303,-0.4799796471050437,0.11247069180117236
-0.7348329838002303,-0.4799796471050437,1.5289969642277104
-0.7348329838002303,-0.4799796471050437,0.10052232335755208
-0.7348329838002303,-0.4799796471050437,1.1547213406856323
-0.7348329838002303,1.5289969642277104,1.5795464269112434
-0.7348329838002303,1.5289969642277104,0.11247069180117236
-0.7348329838002303,1.5289969642277104,0.10052232335755208
-0.7348329838002303,1.5289969642277104,1.1547213406856323
-0.7348329838002303,0.10052232335755208,1.5795464269112434
-0.7348329838002303,0.10052232335755208,0.11247069180117236
-0.7348329838002303,0.10052232335755208,1.1547213406856323
-0.7348329838002303,1.1547213406856323,1.5795464269112434
-0.7348329838002303,1.1547213406856323,0.11247069180117236
-0.7348329838002303,1.5795464269112434,0.11247069180117236
-0.2549715876816582,1.3042060785067981,-0.31064450603487453
-0.2549715876816582,1.3042060785067981,-0.4799796471050437
-0.2549715876816582,1.3042060785067981,1.5289969642277104
-0.2549715876816582,1.3042060785067981,0.10052232335755208
-0.2549715876816582,1.3042060785067981,1.1547213406856323
-0.2549715876816582,1.3042060785067981,1.5795464269112434
-0.2549715876816582,1.3042060785067981,0.11247069180117236
-0.2549715876816582,-0.31064450603487453,-0.4799796471050437
-0.2549715876816582,-0.31064450603487453,1.5289969642277104
-0.2549715876816582,-0.31064450603487453,0.10052232335755208
-0.2549715876816582,-0.31064450603487453,1.1547213406856323
-0.2549715876816582,-0.31064450603487453,1.5795464269112434
-0.2549715876816582,-0.31064450603487453,0.11247069180117236
-0.2549715876816582,-0.4799796471050437,1.5795464269112434
-0.2549715876816582,-0.4799796471050437,0.11247069180117236
-0.2549715876816582,-0.4799796471050437,1.5289969642277104
-0.2549715876816582,-0.4799796471050437,0.10052232335755208
-0.2549715876816582,-0.4799796471050437,1.1547213406856323
-0.2549715876816582,1.5289969642277104,1.5795464269112434
-0.2549715876816582,1.5289969642277104,0.11247069180117236
-0.2549715876816582,1.5289969642277104,0.10052232335755208
-0.2549715876816582,1.5289969642277104,1.1547213406856323
-0.2549715876816582,0.10052232335755208,1.5795464269112434
-0.2549715876816582,0.10052232335755208,0.11247069180117236
-0.2549715876816582,0.10052232335755208,1.1547213406856323
-0.2549715876816582,1.1547213406856323,1.5795464269112434
-0.2549715876816582,1.1547213406856323,0.11247069180117236
-0.2549715876816582,1.5795464269112434,0.11247069180117236
1.3042060785067981,-0.31064450603487453,-0.4799796471050437
1.3042060785067981,-0.31064450603487453,1.5289969642277104
1.3042060785067981,-0.31064450603487453,0.10052232335755208
1.3042060785067981,-0.31064450603487453,1.1547213406856323
1.3042060785067981,-0.31064450603487453,1.5795464269112434
1.3042060785067981,-0.31064450603487453,0.11247069180117236
1.3042060785067981,-0.4799796471050437,1.5795464269112434
1.3042060785067981,-0.4799796471050437,0.11247069180117236
1.3042060785067981,-0.4799796471050437,1.5289969642277104
1.3042060785067981,-0.4799796471050437,0.10052232335755208
1.3042060785067981,-0.4799796471050437,1.1547213406856323
1.3042060785067981,1.5289969642277104,1.5795464269112434
1.3042060785067981,1.5289969642277104,0.11247069180117236
1.3042060785067981,1.5289969642277104,0.10052232335755208
1.3042060785067981,1.5289969642277104,1.1547213406856323
1.3042060785067981,0.10052232335755208,1.5795464269112434
1.3042060785067981,0.10052232335755208,0.11247069180117236
1.3042060785067981,0.10052232335755208,1.1547213406856323
1.3042060785067981,1.1547213406856323,1.5795464269112434
1.3042060785067981,1.1547213406856323,0.11247069180117236
1.3042060785067981,1.5795464269112434,0.11247069180117236
-0.31064450603487453,-0.4799796471050437,1.5795464269112434
-0.31064450603487453,-0.4799796471050437,0.11247069180117236
-0.31064450603487453,-0.4799796471050437,1.5289969642277104
-0.31064450603487453,-0.4799796471050437,0.10052232335755208
-0.31064450603487453,-0.4799796471050437,1.1547213406856323
-0.31064450603487453,1.5289969642277104,1.5795464269112434
-0.31064450603487453,1.5289969642277104,0.11247069180117236
-0.31064450603487453,1.5289969642277104,0.10052232335755208
-0.31064450603487453,1.5289969642277104,1.1547213406856323
-0.31064450603487453,0.10052232335755208,1.5795464269112434
-0.31064450603487453,0.10052232335755208,0.11247069180117236
-0.31064450603487453,0.10052232335755208,1.1547213406856323
-0.31064450603487453,1.1547213406856323,1.5795464269112434
-0.31064450603487453,1.1547213406856323,0.11247069180117236
-0.31064450603487453,1.5795464269112434,0.11247069180117236
-0.4799796471050437,1.5795464269112434,0.11247069180117236
-0.4799796471050437,1.5289969642277104,1.5795464269112434
-0.4799796471050437,1.5289969642277104,0.11247069180117236
-0.4799796471050437,1.5289969642277104,0.10052232335755208
-0.4799796471050437,1.5289969642277104,1.1547213406856323
-0.4799796471050437,0.10052232335755208,1.5795464269112434
-0.4799796471050437,0.10052232335755208,0.11247069180117236
-0.4799796471050437,0.10052232335755208,1.1547213406856323
-0.4799796471050437,1.1547213406856323,1.5795464269112434
-0.4799796471050437,1.1547213406856323,0.11247069180117236
1.5289969642277104,1.5795464269112434,0.11247069180117236
1.5289969642277104,0.10052232335755208,1.5795464269112434
1.5289969642277104,0.10052232335755208,0.11247069180117236
1.5289969642277104,0.10052232335755208,1.1547213406856323
1.5289969642277104,1.1547213406856323,1.5795464269112434
1.5289969642277104,1.1547213406856323,0.11247069180117236
0.10052232335755208,1.5795464269112434,0.11247069180117236
0.10052232335755208,1.1547213406856323,1.5795464269112434
0.10052232335755208,1.1547213406856323,0.11247069180117236
1.1547213406856323,1.5795464269112434,0.11247069180117236
