0,1,2
0.31173737106666244,0.7271379288502248,0.23787460194518859
0.31173737106666244,0.7271379288502248,-0.8953060718086464
0.31173737106666244,0.7271379288502248,-1.164297481942363
0.31173737106666244,0.7271379288502248,-1.0062902334581605
0.31173737106666244,0.7271379288502248,-2.2675083153070035
0.31173737106666244,0.7271379288502248,-0.6915317534432605
0.31173737106666244,0.7271379288502248,1.6270333245599375
0.31173737106666244,0.7271379288502248,-1.0867842147210045
0.31173737106666244,0.23787460194518859,-0.8953060718086464
0.31173737106666244,0.23787460194518859,-1.164297481942363
0.31173737106666244,0.23787460194518859,-1.0062902334581605
0.31173737106666244,0.23787460194518859,-2.2675083153070035
0.31173737106666244,0.23787460194518859,-0.6915317534432605
0.31173737106666244,0.23787460194518859,1.6270333245599375
0.31173737106666244,0.23787460194518859,-1.0867842147210045
0.31173737106666244,-0.8953060718086464,-1.164297481942363
0.31173737106666244,-0.8953060718086464,-1.0062902334581605
0.31173737106666244,-0.8953060718086464,-2.2675083153070035
0.31173737106666244,-0.8953060718086464,-0.6915317534432605
0.31173737106666244,-0.8953060718086464,1.6270333245599375
0.31173737106666244,-0.8953060718086464,-1.0867842147210045
0.31173737106666244,-1.164297481942363,1.6270333245599375
0.31173737106666244,-1.164297481942363,-1.0867842147210045
0.31173737106666244,-1.164297481942363,-1.0062902334581605
0.31173737106666244,-1.164297481942363,-2.2675083153070035
0.31173737106666244,-1.164297481942363,-0.6915317534432605
0.31173737106666244,-1.0062902334581605,1.6270333245599375
0.31173737106666244,-1.0062902334581605,-1.0867842147210045
0.31173737106666244,-1.0062902334581605,-2.2675083153070035
0.31173737106666244,-1.0062902334581605,-0.6915317534432605
0.31173737106666244,-2.2675083153070035,1.6270333245599375
0.31173737106666244,-2.2675083153070035,-1.0867842147210045
0.31173737106666244,-2.2675083153070035,-0.6915317534432605
0.31173737106666244,-0.6915317534432605,1.6270333245599375
0.31173737106666244,-0.6915317534432605,-1.0867842147210045
0.31173737106666244,1.6270333245599375,-1.0867842147210045
0.7271379288502248,0.23787460194518859,-0.8953060718086464
0.7271379288502248,0.23787460194518859,-1.164297481942363
0.7271379288502248,0.23787460194518859,-1.0062902334581605
0.7271379288502248,0.23787460194518859,-2.2675083153070035
0.7271379288502248,0.23787460194518859,-0.6915317534432605
0.7271379288502248,0.23787460194518859,1.6270333245599375
0.7271379288502248,0.23787460194518859,-1.0867842147210045
0.7271379288502248,-0.8953060718086464,-1.164297481942363
0.7271379288502248,-0.8953060718086464,-1.0062902334581605
0.7271379288502248,-0.8953060718086464,-2.2675083153070035
0.7271379288502248,-0.8953060718086464,-0.6915317534432605
0.7271379288502248,-0.8953060718086464,1.6270333245599375
0.7271379288502248,-0.8953060718086464,-1.0867842147210045
0.7271379288502248,-1.164297481942363,1.6270333245599375
0.7271379288502248,-1.164297481942363,-1.0867842147210045
0.7271379288502248,-1.164297481942363,-1.0062902334581605
0.7271379288502248,-1.164297481942363,-2.2675083153070035
0.7271379288502248,-1.164297481942363,-0.6915317534432605
0.7271379288502248,-1.0062902334581605,1.6270333245599375
0.7271379288502248,-1.0062902334581605,-1.0867842147210045
0.7271379288502248,-1.0062902334581605,-2.2675083153070035
0.7271379288502248,-1.0062902334581605,-0.6915317534432605
0.7271379288502248,-2.2675083153070035,1.6270333245599375
0.7271379288502248,-2.2675083153070035,-1.0867842147210045
0.7271379288502248,-2.2675083153070035,-0.6915317534432605
0.7271379288502248,-0.6915317534432605,1.6270333245599375
0.7271379288502248,-0.6915317534432605,-1.0867842147210045
0.7271379288502248,1.6270333245599375,-1.0867842147210045
0.23787460194518859,-0.8953060718086464,-1.164297481942363
0.23787460194518859,-0.8953060718086464,-1.0062902334581605
0.23787460194518859,-0.8953060718086464,-2.2675083153070035
0.23787460194518859,-0.8953060718086464,-0.6915317534432605
0.23787460194518859,-0.8953060718086464,1.6270333245599375
0.23787460194518859,-0.8953060718086464,-1.0867842147210045
0.23787460194518859,-1.164297481942363,1.6270333245599375
0.23787460194518859,-1.164297481942363,-1.0867842147210045
0.23787460194518859,-1.164297481942363,-1.0062902334581605
0.23787460194518859,-1.164297481942363,-2.2675083153070035
0.23787460194518859,-1.164297481942363,-0.6915317534432605
0.23787460194518859,-1.0062902334581605,1.6270333245599375
0.23787460194518859,-1.0062902334581605,-1.0867842147210045
0.23787460194518859,-1.0062902334581605,-2.2675083153070035
0.23787460194518859,-1.0062902334581605,-0.6915317534432605
0.23787460194518859,-2.2675083153070035,1.6270333245599375
0.23787460194518859,-2.2675083153070035,-1.0867842147210045
0.23787460194518859,-2.2675083153070035,-0.6915317534432605
0.23787460194518859,-0.6915317534432605,1.6270333245599375
0.23787460194518859,-0.6915317534432605,-1.0867842147210045
0.23787460194518859,1.6270333245599375,-1.0867842147210045
-0.8953060718086464,-1.164297481942363,1.6270333245599375
-0.8953060718086464,-1.164297481942363,-1.0867842147210045
-0.8953060718086464,-1.164297481942363,-1.0062902334581605
-0.8953060718086464,-1.164297481942363,-2.2675083153070035
-0.8953060718086464,-1.164297481942363,-0.6915317534432605
-0.8953060718086464,-1.0062902334581605,1.6270333245599375
-0.8953060718086464,-1.0062902334581605,-1.0867842147210045
-0.8953060718086464,-1.0062902334581605,-2.2675083153070035
-0.8953060718086464,-1.0062902334581605,-0.6915317534432605
-0.8953060718086464,-2.2675083153070035,1.6270333245599375
-0.8953060718086464,-2.2675083153070035,-1.0867842147210045
-0.8953060718086464,-2.2675083153070035,-0.6915317534432605
-0.8953060718086464,-0.6915317534432605,1.6270333245599375
-0.8953060718086464,-0.6915317534432605,-1.0867842147210045
-0.8953060718086464,1.6270333245599375,-1.0867842147210045
-1.164297481942363,1.6270333245599375,-1.0867842147210045
-1.164297481942363,-1.0062902334581605,1.6270333245599375
-1.164297481942363,-1.0062902334581605,-1.0867842147210045
-1.164297481942363,-1.0062902334581605,-2.2675083153070035
-1.164297481942363,-1.0062902334581605,-0.6915317534432605
-1.164297481942363,-2.2675083153070035,1.6270333245599375
-1.164297481942363,-2.2675083153070035,-1.0867842147210045
-1.164297481942363,-2.2675083153070035,-0.6915317534432605
-1.164297481942363,-0.6915317534432605,1.6270333245599375
-1.164297481942363,-0.6915317534432605,-1.0867842147210045
-1.0062902334581605,1.6270333245599375,-1.0867842147210045
-1.0062902334581605,-2.2675083153070035,1.6270333245599375
-1.0062902334581605,-2.2675083153070035,-1.0867842147210045
-1.0062902334581605,-2.2675083153070035,-0.6915317534432605
-1.0062902334581605,-0.6915317534432605,1.6270333245599375
-1.0062902334581605,-0.6915317534432605,-1.0867842147210045
-2.2675083153070035,1.6270333245599375,-1.0867842147210045
-2.2675083153070035,-0.6915317534432605,1.6270333245599375
-2.2675083153070035,-0.6915317534432605,-1.0867842147210045
-0.6915317534432605,1.6270333245599375,-1.0867842147210045
