0,1,2
0.7752399546675464,0.7603908415142595,-0.4279653542610319
0.7752399546675464,0.7603908415142595,0.5540689653031492
0.7752399546675464,0.7603908415142595,-0.1438284629113902
0.7752399546675464,0.7603908415142595,-1.7345159119948257
0.7752399546675464,0.7603908415142595,0.9241302585700228
0.7752399546675464,0.7603908415142595,-1.0851751378297931
0.7752399546675464,0.7603908415142595,1.7456833876401072
0.7752399546675464,0.7603908415142595,-2.3664697690105685
0.7752399546675464,-0.4279653542610319,0.5540689653031492
0.7752399546675464,-0.4279653542610319,-0.1438284629113902
0.7752399546675464,-0.4279653542610319,-1.7345159119948257
0.7752399546675464,-0.4279653542610319,0.9241302585700228
0.7752399546675464,-0.4279653542610319,-1.0851751378297931
0.7752399546675464,-0.4279653542610319,1.7456833876401072
0.7752399546675464,-0.4279653542610319,-2.3664697690105685
0.7752399546675464,0.5540689653031492,-0.1438284629113902
0.7752399546675464,0.5540689653031492,-1.7345159119948257
0.7752399546675464,0.5540689653031492,0.9241302585700228
0.7752399546675464,0.5540689653031492,-1.0851751378297931
0.7752399546675464,0.5540689653031492,1.7456833876401072
0.7752399546675464,0.5540689653031492,-2.3664697690105685
0.7752399546675464,-0.1438284629113902,1.7456833876401072
0.7752399546675464,-0.1438284629113902,-2.3664697690105685
0.7752399546675464,-0.1438284629113902,-1.7345159119948257
0.7752399546675464,-0.1438284629113902,0.9241302585700228
0.7752399546675464,-0.1438284629113902,-1.0851751378297931
0.7752399546675464,-1.7345159119948257,1.7456833876401072
0.7752399546675464,-1.7345159119948257,-2.3664697690105685
0.7752399546675464,-1.7345159119948257,0.9241302585700228
0.7752399546675464,-1.7345159119948257,-1.0851751378297931
0.7752399546675464,0.9241302585700228,1.7456833876401072
0.7752399546675464,0.9241302585700228,-2.3664697690105685
0.7752399546675464,0.9241302585700228,-1.0851751378297931
0.7752399546675464,-1.0851751378297931,1.7456833876401072
0.7752399546675464,-1.0851751378297931,-2.3664697690105685
0.7752399546675464,1.7456833876401072,-2.3664697690105685
0.7603908415142595,-0.4279653542610319,0.5540689653031492
0.7603908415142595,-0.4279653542610319,-0.1438284629113902
0.7603908415142595,-0.4279653542610319,-1.7345159119948257
0.7603908415142595,-0.4279653542610319,0.9241302585700228
0.7603908415142595,-0.4279653542610319,-1.0851751378297931
0.7603908415142595,-0.4279653542610319,1.7456833876401072
0.7603908415142595,-0.4279653542610319,-2.3664697690105685
0.7603908415142595,0.5540689653031492,-0.1438284629113902
0.7603908415142595,0.5540689653031492,-1.7345159119948257
0.7603908415142595,0.5540689653031492,0.9241302585700228
0.7603908415142595,0.5540689653031492,-1.0851751378297931
0.7603908415142595,0.5540689653031492,1.7456833876401072
0.7603908415142595,0.5540689653031492,-2.3664697690105685
0.7603908415142595,-0.1438284629113902,1.7456833876401072
0.7603908415142595,-0.1438284629113902,-2.3664697690105685
0.7603908415142595,-0.1438284629113902,-1.7345159119948257
0.7603908415142595,-0.1438284629113902,0.9241302585700228
0.7603908415142595,-0.1438284629113902,-1.0851751378297931
0.7603908415142595,-1.7345159119948257,1.7456833876401072
0.7603908415142595,-1.7345159119948257,-2.3664697690105685
0.7603908415142595,-1.7345159119948257,0.9241302585700228
0.7603908415142595,-1.7345159119948257,-1.0851751378297931
0.7603908415142595,0.9241302585700228,1.7456833876401072
0.7603908415142595,0.9241302585700228,-2.3664697690105685
0.7603908415142595,0.9241302585700228,-1.0851751378297931
0.7603908415142595,-1.0851751378297931,1.7456833876401072
0.7603908415142595,-1.0851751378297931,-2.3664697690105685
0.7603908415142595,1.7456833876401072,-2.3664697690105685
-0.4279653542610319,0.5540689653031492,-0.1438284629113902
-0.4279653542610319,0.5540689653031492,-1.7345159119948257
-0.4279653542610319,0.5540689653031492,0.9241302585700228
-0.4279653542610319,0.5540689653031492,-1.0851751378297931
-0.4279653542610319,0.5540689653031492,1.7456833876401072
-0.4279653542610319,0.5540689653031492,-2.3664697690105685
-0.4279653542610319,-0.1438284629113902,1.7456833876401072
-0.4279653542610319,-0.1438284629113902,-2.3664697690105685
-0.4279653542610319,-0.1438284629113902,-1.7345159119948257
-0.4279653542610319,-0.1438284629113902,0.9241302585700228
-0.4279653542610319,-0.1438284629113902,-1.0851751378297931
-0.4279653542610319,-1.7345159119948257,1.7456833876401072
-0.4279653542610319,-1.7345159119948257,-2.3664697690105685
-0.4279653542610319,-1.7345159119948257,0.9241302585700228
-0.4279653542610319,-1.7345159119948257,-1.0851751378297931
-0.4279653542610319,0.9241302585700228,1.7456833876401072
-0.4279653542610319,0.9241302585700228,-2.3664697690105685
-0.4279653542610319,0.9241302585700228,-1.0851751378297931
-0.4279653542610319,-1.0851751378297931,1.7456833876401072
-0.4279653542610319,-1.0851751378297931,-2.3664697690105685
-0.4279653542610319,1.7456833876401072,-2.3664697690105685
0.5540689653031492,-0.1438284629113902,1.7456833876401072
0.5540689653031492,-0.1438284629113902,-2.3664697690105685
0.5540689653031492,-0.1438284629113902,-1.7345159119948257
0.5540689653031492,-0.1438284629113902,0.9241302585700228
0.5540689653031492,-0.1438284629113902,-1.0851751378297931
0.5540689653031492,-1.7345159119948257,1.7456833876401072
0.5540689653031492,-1.7345159119948257,-2.3664697690105685
0.5540689653031492,-1.7345159119948257,0.9241302585700228
0.5540689653031492,-1.7345159119948257,-1.0851751378297931
0.5540689653031492,0.9241302585700228,1.7456833876401072
0.5540689653031492,0.9241302585700228,-2.3664697690105685
0.5540689653031492,0.9241302585700228,-1.0851751378297931
0.5540689653031492,-1.0851751378297931,1.7456833876401072
0.5540689653031492,-1.0851751378297931,-2.3664697690105685
0.5540689653031492,1.7456833876401072,-2.3664697690105685
-0.1438284629113902,1.7456833876401072,-2.3664697690105685
-0.1438284629113902,-1.7345159119948257,1.7456833876401072
-0.1438284629113902,-1.7345159119948257,-2.3664697690105685
-0.1438284629113902,-1.7345159119948257,0.9241302585700228
-0.1438284629113902,-1.7345159119948257,-1.0851751378297931
-0.1438284629113902,0.9241302585700228,1.7456833876401072
-0.1438284629113902,0.9241302585700228,-2.3664697690105685
-0.1438284629113902,0.9241302585700228,-1.0851751378297931
-0.1438284629113902,-1.0851751378297931,1.7456833876401072
-0.1438284629113902,-1.0851751378297931,-2.3664697690105685
-1.7345159119948257,1.7456833876401072,-2.3664697690105685
-1.7345159119948257,0.9241302585700228,1.7456833876401072
-1.7345159119948257,0.9241302585700228,-2.3664697690105685
-1.7345159119948257,0.9241302585700228,-1.0851751378297931
-1.7345159119948257,-1.0851751378297931,1.7456833876401072
-1.7345159119948257,-1.0851751378297931,-2.3664697690105685
0.9241302585700228,1.7456833876401072,-2.3664697690105685
0.9241302585700228,-1.0851751378297931,1.7456833876401072
0.9241302585700228,-1.0851751378297931,-2.3664697690105685
-1.0851751378297931,1.7456833876401072,-2.3664697690105685
