0,1,2
0.4632043708733972,-0.4620257716549441,0.03815038329672492
0.4632043708733972,-0.4620257716549441,-0.3040380203609892
0.4632043708733972,-0.4620257716549441,1.1857003065787581
0.4632043708733972,-0.4620257716549441,0.7981801836512387
0.4632043708733972,-0.4620257716549441,-0.6289536397384818
0.4632043708733972,-0.4620257716549441,0.5829760706977676
0.4632043708733972,-0.4620257716549441,-1.117296032067015
0.4632043708733972,-0.4620257716549441,-0.0495910994332214
0.4632043708733972,0.03815038329672492,-0.3040380203609892
0.4632043708733972,0.03815038329672492,1.1857003065787581
0.4632043708733972,0.03815038329672492,0.7981801836512387
0.4632043708733972,0.03815038329672492,-0.6289536397384818
0.4632043708733972,0.03815038329672492,0.5829760706977676
0.4632043708733972,0.03815038329672492,-1.117296032067015
0.4632043708733972,0.03815038329672492,-0.0495910994332214
0.4632043708733972,-0.3040380203609892,1.1857003065787581
0.4632043708733972,-0.3040380203609892,0.7981801836512387
0.4632043708733972,-0.3040380203609892,-0.6289536397384818
0.4632043708733972,-0.3040380203609892,0.5829760706977676
0.4632043708733972,-0.3040380203609892,-1.117296032067015
0.4632043708733972,-0.3040380203609892,-0.0495910994332214
0.4632043708733972,1.1857003065787581,-1.117296032067015
0.4632043708733972,1.1857003065787581,-0.0495910994332214
0.4632043708733972,1.1857003065787581,0.7981801836512387
0.4632043708733972,1.1857003065787581,-0.6289536397384818
0.4632043708733972,1.1857003065787581,0.5829760706977676
0.4632043708733972,0.7981801836512387,-1.117296032067015
0.4632043708733972,0.7981801836512387,-0.0495910994332214
0.4632043708733972,0.7981801836512387,-0.6289536397384818
0.4632043708733972,0.7981801836512387,0.5829760706977676
0.4632043708733972,-0.6289536397384818,-1.117296032067015
0.4632043708733972,-0.6289536397384818,-0.0495910994332214
0.4632043708733972,-0.6289536397384818,0.5829760706977676
0.4632043708733972,0.5829760706977676,-1.117296032067015
0.4632043708733972,0.5829760706977676,-0.0495910994332214
0.4632043708733972,-1.117296032067015,-0.0495910994332214
-0.4620257716549441,0.03815038329672492,-0.3040380203609892
-0.4620257716549441,0.03815038329672492,1.1857003065787581
-0.4620257716549441,0.03815038329672492,0.7981801836512387
-0.4620257716549441,0.03815038329672492,-0.6289536397384818
-0.4620257716549441,0.03815038329672492,0.5829760706977676
-0.4620257716549441,0.03815038329672492,-1.117296032067015
-0.4620257716549441,0.03815038329672492,-0.0495910994332214
-0.4620257716549441,-0.3040380203609892,1.1857003065787581
-0.4620257716549441,-0.3040380203609892,0.7981801836512387
-0.4620257716549441,-0.3040380203609892,-0.6289536397384818
-0.4620257716549441,-0.3040380203609892,0.5829760706977676
-0.4620257716549441,-0.3040380203609892,-1.117296032067015
-0.4620257716549441,-0.3040380203609892,-0.0495910994332214
-0.4620257716549441,1.1857003065787581,-1.117296032067015
-0.4620257716549441,1.1857003065787581,-0.0495910994332214
-0.4620257716549441,1.1857003065787581,0.7981801836512387
-0.4620257716549441,1.1857003065787581,-0.6289536397384818
-0.4620257716549441,1.1857003065787581,0.5829760706977676
-0.4620257716549441,0.7981801836512387,-1.117296032067015
-0.4620257716549441,0.7981801836512387,-0.0495910994332214
-0.4620257716549441,0.7981801836512387,-0.6289536397384818
-0.4620257716549441,0.7981801836512387,0.5829760706977676
-0.4620257716549441,-0.6289536397384818,-1.117296032067015
-0.4620257716549441,-0.6289536397384818,-0.0495910994332214
-0.4620257716549441,-0.6289536397384818,0.5829760706977676
-0.4620257716549441,0.5829760706977676,-1.117296032067015
-0.4620257716549441,0.5829760706977676,-0.0495910994332214
-0.4620257716549441,-1.117296032067015,-0.0495910994332214
0.03815038329672492,-0.3040380203609892,1.1857003065787581
0.03815038329672492,-0.3040380203609892,0.7981801836512387
0.03815038329672492,-0.3040380203609892,-0.6289536397384818
0.03815038329672492,-0.3040380203609892,0.5829760706977676
0.03815038329672492,-0.3040380203609892,-1.117296032067015
0.03815038329672492,-0.3040380203609892,-0.0495910994332214
0.03815038329672492,1.1857003065787581,-1.117296032067015
0.03815038329672492,1.1857003065787581,-0.0495910994332214
0.03815038329672492,1.1857003065787581,0.7981801836512387
0.03815038329672492,1.1857003065787581,-0.6289536397384818
0.03815038329672492,1.1857003065787581,0.5829760706977676
0.03815038329672492,0.7981801836512387,-1.117296032067015
0.03815038329672492,0.7981801836512387,-0.0495910994332214
0.03815038329672492,0.7981801836512387,-0.6289536397384818
0.03815038329672492,0.7981801836512387,0.5829760706977676
0.03815038329672492,-0.6289536397384818,-1.117296032067015
0.03815038329672492,-0.6289536397384818,-0.0495910994332214
0.03815038329672492,-0.6289536397384818,0.5829760706977676
0.03815038329672492,0.5829760706977676,-1.117296032067015
0.03815038329672492,0.5829760706977676,-0.0495910994332214
0.03815038329672492,-1.117296032067015,-0.0495910994332214
-0.3040380203609892,1.1857003065787581,-1.117296032067015
-0.3040380203609892,1.1857003065787581,-0.0495910994332214
-0.3040380203609892,1.1857003065787581,0.7981801836512387
-0.3040380203609892,1.1857003065787581,-0.6289536397384818
-0.3040380203609892,1.1857003065787581,0.5829760706977676
-0.3040380203609892,0.7981801836512387,-1.117296032067015
-0.3040380203609892,0.7981801836512387,-0.0495910994332214
-0.3040380203609892,0.7981801836512387,-0.6289536397384818
-0.3040380203609892,0.7981801836512387,0.5829760706977676
-0.3040380203609892,-0.6289536397384818,-1.117296032067015
-0.3040380203609892,-0.6289536397384818,-0.0495910994332214
-0.3040380203609892,-0.6289536397384818,0.5829760706977676
-0.3040380203609892,0.5829760706977676,-1.117296032067015
-0.3040380203609892,0.5829760706977676,-0.0495910994332214
-0.3040380203609892,-1.117296032067015,-0.0495910994332214
1.1857003065787581,-1.117296032067015,-0.0495910994332214
1.1857003065787581,0.7981801836512387,-1.117296032067015
1.1857003065787581,0.7981801836512387,-0.0495910994332214
1.1857003065787581,0.7981801836512387,-0.6289536397384818
1.1857003065787581,0.7981801836512387,0.5829760706977676
1.1857003065787581,-0.6289536397384818,-1.117296032067015
1.1857003065787581,-0.6289536397384818,-0.0495910994332214
1.1857003065787581,-0.6289536397384818,0.5829760706977676
1.1857003065787581,0.5829760706977676,-1.117296032067015
1.1857003065787581,0.5829760706977676,-0.0495910994332214
0.7981801836512387,-1.117296032067015,-0.0495910994332214
0.7981801836512387,-0.6289536397384818,-1.117296032067015
0.7981801836512387,-0.6289536397384818,-0.0495910994332214
0.7981801836512387,-0.6289536397384818,0.5829760706977676
0.7981801836512387,0.5829760706977676,-1.117296032067015
0.7981801836512387,0.5829760706977676,-0.0495910994332214
-0.6289536397384818,-1.117296032067015,-0.0495910994332214
-0.6289536397384818,0.5829760706977676,-1.117296032067015
-0.6289536397384818,0.5829760706977676,-0.0495910994332214
0.5829760706977676,-1.117296032067015,-0.0495910994332214
