0,1,2
-0.9213710870867136,-1.2479932712100048,2.059517283603705
-0.9213710870867136,-1.2479932712100048,-1.609804626796891
-0.9213710870867136,-1.2479932712100048,-1.9724849712194374
-0.9213710870867136,-1.2479932712100048,-0.09749810801060681
-0.9213710870867136,-1.2479932712100048,1.1386803586107095
-0.9213710870867136,-1.2479932712100048,0.8870720609636692
-0.9213710870867136,-1.2479932712100048,-0.343226508813967
-0.9213710870867136,-1.2479932712100048,-0.48364074247618094
-0.9213710870867136,2.059517283603705,-1.609804626796891
-0.9213710870867136,2.059517283603705,-1.9724849712194374
-0.9213710870867136,2.059517283603705,-0.09749810801060681
-0.9213710870867136,2.059517283603705,1.1386803586107095
-0.9213710870867136,2.059517283603705,0.8870720609636692
-0.9213710870867136,2.059517283603705,-0.343226508813967
-0.9213710870867136,2.059517283603705,-0.48364074247618094
-0.9213710870867136,-1.609804626796891,-1.9724849712194374
-0.9213710870867136,-1.609804626796891,-0.09749810801060681
-0.9213710870867136,-1.609804626796891,1.1386803586107095
-0.9213710870867136,-1.609804626796891,0.8870720609636692
-0.9213710870867136,-1.609804626796891,-0.343226508813967
-0.9213710870867136,-1.609804626796891,-0.48364074247618094
-0.9213710870867136,-1.9724849712194374,-0.343226508813967
-0.9213710870867136,-1.9724849712194374,-0.48364074247618094
-0.9213710870867136,-1.9724849712194374,-0.09749810801060681
-0.9213710870867136,-1.9724849712194374,1.1386803586107095
-0.9213710870867136,-1.9724849712194374,0.8870720609636692
-0.9213710870867136,-0.09749810801060681,-0.343226508813967
-0.9213710870867136,-0.09749810801060681,-0.48364074247618094
-0.9213710870867136,-0.09749810801060681,1.1386803586107095
-0.9213710870867136,-0.09749810801060681,0.8870720609636692
-0.9213710870867136,1.1386803586107095,-0.343226508813967
-0.9213710870867136,1.1386803586107095,-0.48364074247618094
-0.9213710870867136,1.1386803586107095,0.8870720609636692
-0.9213710870867136,0.8870720609636692,-0.343226508813967
-0.9213710870867136,0.8870720609636692,-0.48364074247618094
-0.9213710870867136,-0.343226508813967,-0.48364074247618094
-1.2479932712100048,2.059517283603705,-1.609804626796891
-1.2479932712100048,2.059517283603705,-1.9724849712194374
-1.2479932712100048,2.059517283603705,-0.09749810801060681
-1.2479932712100048,2.059517283603705,1.1386803586107095
-1.2479932712100048,2.059517283603705,0.8870720609636692
-1.2479932712100048,2.059517283603705,-0.343226508813967
-1.2479932712100048,2.059517283603705,-0.48364074247618094
-1.2479932712100048,-1.609804626796891,-1.9724849712194374
-1.2479932712100048,-1.609804626796891,-0.09749810801060681
-1.2479932712100048,-1.609804626796891,1.1386803586107095
-1.2479932712100048,-1.609804626796891,0.8870720609636692
-1.2479932712100048,-1.609804626796891,-0.343226508813967
-1.2479932712100048,-1.609804626796891,-0.48364074247618094
-1.2479932712100048,-1.9724849712194374,-0.343226508813967
-1.2479932712100048,-1.9724849712194374,-0.48364074247618094
-1.2479932712100048,-1.9724849712194374,-0.09749810801060681
-1.2479932712100048,-1.9724849712194374,1.1386803586107095
-1.2479932712100048,-1.9724849712194374,0.8870720609636692
-1.2479932712100048,-0.09749810801060681,-0.343226508813967
-1.2479932712100048,-0.09749810801060681,-0.48364074247618094
-1.2479932712100048,-0.09749810801060681,1.1386803586107095
-1.2479932712100048,-0.09749810801060681,0.8870720609636692
-1.2479932712100048,1.1386803586107095,-0.343226508813967
-1.2479932712100048,1.1386803586107095,-0.48364074247618094
-1.2479932712100048,1.1386803586107095,0.8870720609636692
-1.2479932712100048,0.8870720609636692,-0.343226508813967
-1.2479932712100048,0.8870720609636692,-0.48364074247618094
-1.2479932712100048,-0.343226508813967,-0.48364074247618094
2.059517283603705,-1.609804626796891,-1.9724849712194374
2.059517283603705,-1.609804626796891,-0.09749810801060681
2.059517283603705,-1.609804626796891,1.1386803586107095
2.059517283603705,-1.609804626796891,0.8870720609636692
2.059517283603705,-1.609804626796891,-0.343226508813967
2.059517283603705,-1.609804626796891,-0.48364074247618094
2.059517283603705,-1.9724849712194374,-0.343226508813967
2.059517283603705,-1.9724849712194374,-0.48364074247618094
2.059517283603705,-1.9724849712194374,-0.09749810801060681
2.059517283603705,-1.9724849712194374,1.1386803586107095
2.059517283603705,-1.9724849712194374,0.8870720609636692
2.059517283603705,-0.09749810801060681,-0.343226508813967
2.059517283603705,-0.09749810801060681,-0.48364074247618094
2.059517283603705,-0.09749810801060681,1.1386803586107095
2.059517283603705,-0.09749810801060681,0.8870720609636692
2.059517283603705,1.1386803586107095,-0.343226508813967
2.059517283603705,1.1386803586107095,-0.48364074247618094
2.059517283603705,1.1386803586107095,0.8870720609636692
2.059517283603705,0.8870720609636692,-0.343226508813967
2.059517283603705,0.8870720609636692,-0.48364074247618094
2.059517283603705,-0.343226508813967,-0.48364074247618094
-1.609804626796891,-1.9724849712194374,-0.343226508813967
-1.609804626796891,-1.9724849712194374,-0.48364074247618094
-1.609804626796891,-1.9724849712194374,-0.09749810801060681
-1.609804626796891,-1.9724849712194374,1.1386803586107095
-1.609804626796891,-1.9724849712194374,0.8870720609636692
-1.609804626796891,-0.09749810801060681,-0.343226508813967
-1.609804626796891,-0.09749810801060681,-0.48364074247618094
-1.609804626796891,-0.09749810801060681,1.1386803586107095
-1.609804626796891,-0.09749810801060681,0.8870720609636692
-1.609804626796891,1.1386803586107095,-0.343226508813967
-1.609804626796891,1.1386803586107095,-0.48364074247618094
-1.609804626796891,1.1386803586107095,0.8870720609636692
-1.609804626796891,0.8870720609636692,-0.343226508813967
-1.609804626796891,0.8870720609636692,-0.48364074247618094
-1.609804626796891,-0.343226508813967,-0.48364074247618094
-1.9724849712194374,-0.343226508813967,-0.48364074247618094
-1.9724849712194374,-0.09749810801060681,-0.343226508813967
-1.9724849712194374,-0.09749810801060681,-0.48364074247618094
-1.9724849712194374,-0.09749810801060681,1.1386803586107095
-1.9724849712194374,-0.09749810801060681,0.8870720609636692
-1.9724849712194374,1.1386803586107095,-0.343226508813967
-1.9724849712194374,1.1386803586107095,-0.48364074247618094
-1.9724849712194374,1.1386803586107095,0.8870720609636692
-1.9724849712194374,0.8870720609636692,-0.343226508813967
-1.9724849712194374,0.8870720609636692,-0.48364074247618094
-0.09749810801060681,-0.343226508813967,-0.48364074247618094
-0.09749810801060681,1.1386803586107095,-0.343226508813967
-0.09749810801060681,1.1386803586107095,-0.48364074247618094
-0.09749810801060681,1.1386803586107095,0.8870720609636692
-0.09749810801060681,0.8870720609636692,-0.343226508813967
-0.09749810801060681,0.8870720609636692,-0.48364074247618094
1.1386803586107095,-0.343226508813967,-0.48364074247618094
1.1386803586107095,0.8870720609636692,-0.343226508813967
1.1386803586107095,0.8870720609636692,-0.48364074247618094
0.8870720609636692,-0.343226508813967,-0.48364074247618094
