0,1,2
0.8905250459219698,-0.19827777576858177,0.8784037171912135
0.8905250459219698,-0.19827777576858177,2.9442730412217863
0.8905250459219698,-0.19827777576858177,0.40825120121421504
0.8905250459219698,-0.19827777576858177,0.856454137459256
0.8905250459219698,-0.19827777576858177,-0.041370549144141795
0.8905250459219698,-0.19827777576858177,0.14621970761015046
0.8905250459219698,-0.19827777576858177,-0.1502059517887901
0.8905250459219698,-0.19827777576858177,-1.0812841463848222
0.8905250459219698,0.8784037171912135,2.9442730412217863
0.8905250459219698,0.8784037171912135,0.40825120121421504
0.8905250459219698,0.8784037171912135,0.856454137459256
0.8905250459219698,0.8784037171912135,-0.041370549144141795
0.8905250459219698,0.8784037171912135,0.14621970761015046
0.8905250459219698,0.8784037171912135,-0.1502059517887901
0.8905250459219698,0.8784037171912135,-1.0812841463848222
0.8905250459219698,2.9442730412217863,0.40825120121421504
0.8905250459219698,2.9442730412217863,0.856454137459256
0.8905250459219698,2.9442730412217863,-0.041370549144141795
0.8905250459219698,2.9442730412217863,0.14621970761015046
0.8905250459219698,2.9442730412217863,-0.1502059517887901
0.8905250459219698,2.9442730412217863,-1.0812841463848222
0.8905250459219698,0.40825120121421504,-0.1502059517887901
0.8905250459219698,0.40825120121421504,-1.0812841463848222
0.8905250459219698,0.40825120121421504,0.856454137459256
0.8905250459219698,0.40825120121421504,-0.041370549144141795
0.8905250459219698,0.40825120121421504,0.14621970761015046
0.8905250459219698,0.856454137459256,-0.1502059517887901
0.8905250459219698,0.856454137459256,-1.0812841463848222
0.8905250459219698,0.856454137459256,-0.041370549144141795
0.8905250459219698,0.856454137459256,0.14621970761015046
0.8905250459219698,-0.041370549144141795,-0.1502059517887901
0.8905250459219698,-0.041370549144141795,-1.0812841463848222
0.8905250459219698,-0.041370549144141795,0.14621970761015046
0.8905250459219698,0.14621970761015046,-0.1502059517887901
0.8905250459219698,0.14621970761015046,-1.0812841463848222
0.8905250459219698,-0.1502059517887901,-1.0812841463848222
-0.19827777576858177,0.8784037171912135,2.9442730412217863
-0.19827777576858177,0.8784037171912135,0.40825120121421504
-0.19827777576858177,0.8784037171912135,0.856454137459256
-0.19827777576858177,0.8784037171912135,-0.041370549144141795
-0.19827777576858177,0.8784037171912135,0.14621970761015046
-0.19827777576858177,0.8784037171912135,-0.1502059517887901
-0.19827777576858177,0.8784037171912135,-1.0812841463848222
-0.19827777576858177,2.9442730412217863,0.40825120121421504
-0.19827777576858177,2.9442730412217863,0.856454137459256
-0.19827777576858177,2.9442730412217863,-0.041370549144141795
-0.19827777576858177,2.9442730412217863,0.14621970761015046
-0.19827777576858177,2.9442730412217863,-0.1502059517887901
-0.19827777576858177,2.9442730412217863,-1.0812841463848222
-0.19827777576858177,0.40825120121421504,-0.1502059517887901
-0.19827777576858177,0.40825120121421504,-1.0812841463848222
-0.19827777576858177,0.40825120121421504,0.856454137459256
-0.19827777576858177,0.40825120121421504,-0.041370549144141795
-0.19827777576858177,0.40825120121421504,0.14621970761015046
-0.19827777576858177,0.856454137459256,-0.1502059517887901
-0.19827777576858177,0.856454137459256,-1.0812841463848222
-0.19827777576858177,0.856454137459256,-0.041370549144141795
-0.19827777576858177,0.856454137459256,0.14621970761015046
-0.19827777576858177,-0.041370549144141795,-0.1502059517887901
-0.19827777576858177,-0.041370549144141795,-1.0812841463848222
-0.19827777576858177,-0.041370549144141795,0.14621970761015046
-0.19827777576858177,0.14621970761015046,-0.1502059517887901
-0.19827777576858177,0.14621970761015046,-1.0812841463848222
-0.19827777576858177,-0.1502059517887901,-1.0812841463848222
0.8784037171912135,2.9442730412217863,0.40825120121421504
0.8784037171912135,2.9442730412217863,0.856454137459256
0.8784037171912135,2.9442730412217863,-0.041370549144141795
0.8784037171912135,2.9442730412217863,0.14621970761015046
0.8784037171912135,2.9442730412217863,-0.1502059517887901
0.8784037171912135,2.9442730412217863,-1.0812841463848222
0.8784037171912135,0.40825120121421504,-0.1502059517887901
0.8784037171912135,0.40825120121421504,-1.0812841463848222
0.8784037171912135,0.40825120121421504,0.856454137459256
0.8784037171912135,0.40825120121421504,-0.041370549144141795
0.8784037171912135,0.40825120121421504,0.14621970761015046
0.8784037171912135,0.856454137459256,-0.1502059517887901
0.8784037171912135,0.856454137459256,-1.0812841463848222
0.8784037171912135,0.856454137459256,-0.041370549144141795
0.8784037171912135,0.856454137459256,0.14621970761015046
0.8784037171912135,-0.041370549144141795,-0.1502059517887901
0.8784037171912135,-0.041370549144141795,-1.0812841463848222
0.8784037171912135,-0.041370549144141795,0.14621970761015046
0.8784037171912135,0.14621970761015046,-0.1502059517887901
0.8784037171912135,0.14621970761015046,-1.0812841463848222
0.8784037171912135,-0.1502059517887901,-1.0812841463848222
2.9442730412217863,0.40825120121421504,-0.1502059517887901
2.9442730412217863,0.40825120121421504,-1.0812841463848222
2.9442730412217863,0.40825120121421504,0.856454137459256
2.9442730412217863,0.40825120121421504,-0.041370549144141795
2.9442730412217863,0.40825120121421504,0.14621970761015046
2.9442730412217863,0.856454137459256,-0.1502059517887901
2.9442730412217863,0.856454137459256,-1.0812841463848222
2.9442730412217863,0.856454137459256,-0.041370549144141795
2.9442730412217863,0.856454137459256,0.14621970761015046
2.9442730412217863,-0.041370549144141795,-0.1502059517887901
2.9442730412217863,-0.041370549144141795,-1.0812841463848222
2.9442730412217863,-0.041370549144141795,0.14621970761015046
2.9442730412217863,0.14621970761015046,-0.1502059517887901
2.9442730412217863,0.14621970761015046,-1.0812841463848222
2.9442730412217863,-0.1502059517887901,-1.0812841463848222
0.40825120121421504,-0.1502059517887901,-1.0812841463848222
0.40825120121421504,0.856454137459256,-0.1502059517887901
0.40825120121421504,0.856454137459256,-1.0812841463848222
0.40825120121421504,0.856454137459256,-0.041370549144141795
0.40825120121421504,0.856454137459256,0.14621970761015046
0.40825120121421504,-0.041370549144141795,-0.1502059517887901
0.40825120121421504,-0.041370549144141795,-1.0812841463848222
0.40825120121421504,-0.041370549144141795,0.14621970761015046
0.40825120121421504,0.14621970761015046,-0.1502059517887901
0.40825120121421504,0.14621970761015046,-1.0812841463848222
0.856454137459256,-0.1502059517887901,-1.0812841463848222
0.856454137459256,-0.041370549144141795,-0.1502059517887901
0.856454137459256,-0.041370549144141795,-1.0812841463848222
0.856454137459256,-0.041370549144141795,0.14621970761015046
0.856454137459256,0.14621970761015046,-0.1502059517887901
0.856454137459256,0.14621970761015046,-1.0812841463848222
-0.041370549144141795,-0.1502059517887901,-1.0812841463848222
-0.041370549144141795,0.14621970761015046,-0.1502059517887901
-0.041370549144141795,0.14621970761015046,-1.0812841463848222
0.14621970761015046,-0.1502059517887901,-1.0812841463848222
