0,1,2
0.20550577747984775,-1.9001483548922353,0.7950574673225911
0.20550577747984775,-1.9001483548922353,-0.23616510397161908
0.20550577747984775,-1.9001483548922353,-0.6698031097692183
0.20550577747984775,-1.9001483548922353,-0.3793432579796221
0.20550577747984775,-1.9001483548922353,-0.38180971586259954
0.20550577747984775,-1.9001483548922353,-0.6931179041017946
0.20550577747984775,-1.9001483548922353,-0.6466117892744399
0.20550577747984775,-1.9001483548922353,1.7619449135317946
0.20550577747984775,0.7950574673225911,-0.23616510397161908
0.20550577747984775,0.7950574673225911,-0.6698031097692183
0.20550577747984775,0.7950574673225911,-0.3793432579796221
0.20550577747984775,0.7950574673225911,-0.38180971586259954
0.20550577747984775,0.7950574673225911,-0.6931179041017946
0.20550577747984775,0.7950574673225911,-0.6466117892744399
0.20550577747984775,0.7950574673225911,1.7619449135317946
0.20550577747984775,-0.23616510397161908,-0.6698031097692183
0.20550577747984775,-0.23616510397161908,-0.3793432579796221
0.20550577747984775,-0.23616510397161908,-0.38180971586259954
0.20550577747984775,-0.23616510397161908,-0.6931179041017946
0.20550577747984775,-0.23616510397161908,-0.6466117892744399
0.20550577747984775,-0.23616510397161908,1.7619449135317946
0.20550577747984775,-0.6698031097692183,-0.6466117892744399
0.20550577747984775,-0.6698031097692183,1.7619449135317946
0.20550577747984775,-0.6698031097692183,-0.3793432579796221
0.20550577747984775,-0.6698031097692183,-0.38180971586259954
0.20550577747984775,-0.6698031097692183,-0.6931179041017946
0.20550577747984775,-0.3793432579796221,-0.6466117892744399
0.20550577747984775,-0.3793432579796221,1.7619449135317946
0.20550577747984775,-0.3793432579796221,-0.38180971586259954
0.20550577747984775,-0.3793432579796221,-0.6931179041017946
0.20550577747984775,-0.38180971586259954,-0.6466117892744399
0.20550577747984775,-0.38180971586259954,1.7619449135317946
0.20550577747984775,-0.38180971586259954,-0.6931179041017946
0.20550577747984775,-0.6931179041017946,-0.6466117892744399
0.20550577747984775,-0.6931179041017946,1.7619449135317946
0.20550577747984775,-0.6466117892744399,1.7619449135317946
-1.9001483548922353,0.7950574673225911,-0.23616510397161908
-1.9001483548922353,0.7950574673225911,-0.6698031097692183
-1.9001483548922353,0.7950574673225911,-0.3793432579796221
-1.9001483548922353,0.7950574673225911,-0.38180971586259954
-1.9001483548922353,0.7950574673225911,-0.6931179041017946
-1.9001483548922353,0.7950574673225911,-0.6466117892744399
-1.9001483548922353,0.7950574673225911,1.7619449135317946
-1.9001483548922353,-0.23616510397161908,-0.6698031097692183
-1.9001483548922353,-0.23616510397161908,-0.3793432579796221
-1.9001483548922353,-0.23616510397161908,-0.38180971586259954
-1.9001483548922353,-0.23616510397161908,-0.6931179041017946
-1.9001483548922353,-0.23616510397161908,-0.6466117892744399
-1.9001483548922353,-0.23616510397161908,1.7619449135317946
-1.9001483548922353,-0.6698031097692183,-0.6466117892744399
-1.9001483548922353,-0.6698031097692183,1.7619449135317946
-1.9001483548922353,-0.6698031097692183,-0.3793432579796221
-1.9001483548922353,-0.6698031097692183,-0.38180971586259954
-1.9001483548922353,-0.6698031097692183,-0.6931179041017946
-1.9001483548922353,-0.3793432579796221,-0.6466117892744399
-1.9001483548922353,-0.3793432579796221,1.7619449135317946
-1.9001483548922353,-0.3793432579796221,-0.38180971586259954
-1.9001483548922353,-0.3793432579796221,-0.6931179041017946
-1.9001483548922353,-0.38180971586259954,-0.6466117892744399
-1.9001483548922353,-0.38180971586259954,1.7619449135317946
-1.9001483548922353,-0.38180971586259954,-0.6931179041017946
-1.9001483548922353,-0.6931179041017946,-0.6466117892744399
-1.9001483548922353,-0.6931179041017946,1.7619449135317946
-1.9001483548922353,-0.6466117892744399,1.7619449135317946
0.7950574673225911,-0.23616510397161908,-0.6698031097692183
0.7950574673225911,-0.23616510397161908,-0.3793432579796221
0.7950574673225911,-0.23616510397161908,-0.38180971586259954
0.7950574673225911,-0.23616510397161908,-0.6931179041017946
0.7950574673225911,-0.23616510397161908,-0.6466117892744399
0.7950574673225911,-0.23616510397161908,1.7619449135317946
0.7950574673225911,-0.6698031097692183,-0.6466117892744399
0.7950574673225911,-0.6698031097692183,1.7619449135317946
0.7950574673225911,-0.6698031097692183,-0.3793432579796221
0.7950574673225911,-0.6698031097692183,-0.38180971586259954
0.7950574673225911,-0.6698031097692183,-0.6931179041017946
0.7950574673225911,-0.3793432579796221,-0.6466117892744399
0.7950574673225911,-0.3793432579796221,1.7619449135317946
0.7950574673225911,-0.3793432579796221,-0.38180971586259954
0.7950574673225911,-0.3793432579796221,-0.6931179041017946
0.7950574673225911,-0.38180971586259954,-0.6466117892744399
0.7950574673225911,-0.38180971586259954,1.7619449135317946
0.7950574673225911,-0.38180971586259954,-0.6931179041017946
0.7950574673225911,-0.6931179041017946,-0.6466117892744399
0.7950574673225911,-0.6931179041017946,1.7619449135317946
0.7950574673225911,-0.6466117892744399,1.7619449135317946
-0.23616510397161908,-0.6698031097692183,-0.6466117892744399
-0.23616510397161908,-0.6698031097692183,1.7619449135317946
-0.23616510397161908,-0.6698031097692183,-0.3793432579796221
-0.23616510397161908,-0.6698031097692183,-0.38180971586259954
-0.23616510397161908,-0.6698031097692183,-0.6931179041017946
-0.23616510397161908,-0.3793432579796221,-0.6466117892744399
-0.23616510397161908,-0.3793432579796221,1.7619449135317946
-0.23616510397161908,-0.3793432579796221,-0.38180971586259954
-0.23616510397161908,-0.3793432579796221,-0.6931179041017946
-0.23616510397161908,-0.38180971586259954,-0.6466117892744399
-0.23616510397161908,-0.38180971586259954,1.7619449135317946
-0.23616510397161908,-0.38180971586259954,-0.6931179041017946
-0.23616510397161908,-0.6931179041017946,-0.6466117892744399
-0.23616510397161908,-0.6931179041017946,1.7619449135317946
-0.23616510397161908,-0.6466117892744399,1.7619449135317946
-0.6698031097692183,-0.6466117892744399,1.7619449135317946
-0.6698031097692183,-0.3793432579796221,-0.6466117892744399
-0.6698031097692183,-0.3793432579796221,1.7619449135317946
-0.6698031097692183,-0.3793432579796221,-0.38180971586259954
-0.6698031097692183,-0.3793432579796221,-0.6931179041017946
-0.6698031097692183,-0.38180971586259954,-0.6466117892744399
-0.6698031097692183,-0.38180971586259954,1.7619449135317946
-0.6698031097692183,-0.38180971586259954,-0.6931179041017946
-0.6698031097692183,-0.6931179041017946,-0.6466117892744399
-0.6698031097692183,-0.6931179041017946,1.7619449135317946
-0.3793432579796221,-0.6466117892744399,1.7619449135317946
-0.3793432579796221,-0.38180971586259954,-0.6466117892744399
-0.3793432579796221,-0.38180971586259954,1.7619449135317946
-0.3793432579796221,-0.38180971586259954,-0.6931179041017946
-0.3793432579796221,-0.6931179041017946,-0.6466117892744399
-0.3793432579796221,-0.6931179041017946,1.7619449135317946
-0.38180971586259954,-0.6466117892744399,1.7619449135317946
-0.38180971586259954,-0.6931179041017946,-0.6466117892744399
-0.38180971586259954,-0.6931179041017946,1.7619449135317946
-0.6931179041017946,-0.6466117892744399,1.7619449135317946
