0,1,2
0.28146678969041705,1.3940863779196098,0.2080101852758706
0.28146678969041705,1.3940863779196098,0.21785656184094512
0.28146678969041705,1.3940863779196098,-0.2747059808088333
0.28146678969041705,1.3940863779196098,0.40223012160093824
0.28146678969041705,1.3940863779196098,1.341127588772824
0.28146678969041705,1.3940863779196098,-2.12285048767787
0.28146678969041705,1.3940863779196098,-0.42496336230363413
0.28146678969041705,1.3940863779196098,0.9625598277907788
0.28146678969041705,0.2080101852758706,0.21785656184094512
0.28146678969041705,0.2080101852758706,-0.2747059808088333
0.28146678969041705,0.2080101852758706,0.40223012160093824
0.28146678969041705,0.2080101852758706,1.341127588772824
0.28146678969041705,0.2080101852758706,-2.12285048767787
0.28146678969041705,0.2080101852758706,-0.42496336230363413
0.28146678969041705,0.2080101852758706,0.9625598277907788
0.28146678969041705,0.21785656184094512,-0.2747059808088333
0.28146678969041705,0.21785656184094512,0.40223012160093824
0.28146678969041705,0.21785656184094512,1.341127588772824
0.28146678969041705,0.21785656184094512,-2.12285048767787
0.28146678969041705,0.21785656184094512,-0.42496336230363413
0.28146678969041705,0.21785656184094512,0.9625598277907788
0.28146678969041705,-0.2747059808088333,-0.42496336230363413
0.28146678969041705,-0.2747059808088333,0.9625598277907788
0.28146678969041705,-0.2747059808088333,0.40223012160093824
0.28146678969041705,-0.2747059808088333,1.341127588772824
0.28146678969041705,-0.2747059808088333,-2.12285048767787
0.28146678969041705,0.40223012160093824,-0.42496336230363413
0.28146678969041705,0.40223012160093824,0.9625598277907788
0.28146678969041705,0.40223012160093824,1.341127588772824
0.28146678969041705,0.40223012160093824,-2.12285048767787
0.28146678969041705,1.341127588772824,-0.42496336230363413
0.28146678969041705,1.341127588772824,0.9625598277907788
0.28146678969041705,1.341127588772824,-2.12285048767787
0.28146678969041705,-2.12285048767787,-0.42496336230363413
0.28146678969041705,-2.12285048767787,0.9625598277907788
0.28146678969041705,-0.42496336230363413,0.9625598277907788
1.3940863779196098,0.2080101852758706,0.21785656184094512
1.3940863779196098,0.2080101852758706,-0.2747059808088333
1.3940863779196098,0.2080101852758706,0.40223012160093824
1.3940863779196098,0.2080101852758706,1.341127588772824
1.3940863779196098,0.2080101852758706,-2.12285048767787
1.3940863779196098,0.2080101852758706,-0.42496336230363413
1.3940863779196098,0.2080101852758706,0.9625598277907788
1.3940863779196098,0.21785656184094512,-0.2747059808088333
1.3940863779196098,0.21785656184094512,0.40223012160093824
1.3940863779196098,0.21785656184094512,1.341127588772824
1.3940863779196098,0.21785656184094512,-2.12285048767787
1.3940863779196098,0.21785656184094512,-0.42496336230363413
1.3940863779196098,0.21785656184094512,0.9625598277907788
1.3940863779196098,-0.2747059808088333,-0.42496336230363413
1.3940863779196098,-0.2747059808088333,0.9625598277907788
1.3940863779196098,-0.2747059808088333,0.40223012160093824
1.3940863779196098,-0.2747059808088333,1.341127588772824
1.3940863779196098,-0.2747059808088333,-2.12285048767787
1.3940863779196098,0.40223012160093824,-0.42496336230363413
1.3940863779196098,0.40223012160093824,0.9625598277907788
1.3940863779196098,0.40223012160093824,1.341127588772824
1.3940863779196098,0.40223012160093824,-2.12285048767787
1.3940863779196098,1.341127588772824,-0.42496336230363413
1.3940863779196098,1.341127588772824,0.9625598277907788
1.3940863779196098,1.341127588772824,-2.12285048767787
1.3940863779196098,-2.12285048767787,-0.42496336230363413
1.3940863779196098,-2.12285048767787,0.9625598277907788
1.3940863779196098,-0.42496336230363413,0.9625598277907788
0.2080101852758706,0.21785656184094512,-0.2747059808088333
0.2080101852758706,0.21785656184094512,0.40223012160093824
0.2080101852758706,0.21785656184094512,1.341127588772824
0.2080101852758706,0.21785656184094512,-2.12285048767787
0.2080101852758706,0.21785656184094512,-0.42496336230363413
0.2080101852758706,0.21785656184094512,0.9625598277907788
0.2080101852758706,-0.2747059808088333,-0.42496336230363413
0.2080101852758706,-0.2747059808088333,0.9625598277907788
0.2080101852758706,-0.2747059808088333,0.40223012160093824
0.2080101852758706,-0.2747059808088333,1.341127588772824
0.2080101852758706,-0.2747059808088333,-2.12285048767787
0.2080101852758706,0.40223012160093824,-0.42496336230363413
0.2080101852758706,0.40223012160093824,0.9625598277907788
0.2080101852758706,0.40223012160093824,1.341127588772824
0.2080101852758706,0.40223012160093824,-2.12285048767787
0.2080101852758706,1.341127588772824,-0.42496336230363413
0.2080101852758706,1.341127588772824,0.9625598277907788
0.2080101852758706,1.341127588772824,-2.12285048767787
0.2080101852758706,-2.12285048767787,-0.42496336230363413
0.2080101852758706,-2.12285048767787,0.9625598277907788
0.2080101852758706,-0.42496336230363413,0.9625598277907788
0.21785656184094512,-0.2747059808088333,-0.42496336230363413
0.21785656184094512,-0.2747059808088333,0.9625598277907788
0.21785656184094512,-0.2747059808088333,0.40223012160093824
0.21785656184094512,-0.2747059808088333,1.341127588772824
0.21785656184094512,-0.2747059808088333,-2.12285048767787
0.21785656184094512,0.40223012160093824,-0.42496336230363413
0.21785656184094512,0.40223012160093824,0.9625598277907788
0.21785656184094512,0.40223012160093824,1.341127588772824
0.21785656184094512,0.40223012160093824,-2.12285048767787
0.21785656184094512,1.341127588772824,-0.42496336230363413
0.21785656184094512,1.341127588772824,0.9625598277907788
0.21785656184094512,1.341127588772824,-2.12285048767787
0.21785656184094512,-2.12285048767787,-0.42496336230363413
0.21785656184094512,-2.12285048767787,0.9625598277907788
0.21785656184094512,-0.42496336230363413,0.9625598277907788
-0.2747059808088333,-0.42496336230363413,0.9625598277907788
-0.2747059808088333,0.40223012160093824,-0.42496336230363413
-0.2747059808088333,0.40223012160093824,0.9625598277907788
-0.2747059808088333,0.40223012160093824,1.341127588772824
-0.2747059808088333,0.40223012160093824,-2.12285048767787
-0.2747059808088333,1.341127588772824,-0.42496336230363413
-0.2747059808088333,1.341127588772824,0.9625598277907788
-0.2747059808088333,1.341127588772824,-2.12285048767787
-0.2747059808088333,-2.12285048767787,-0.42496336230363413
-0.2747059808088333,-2.12285048767787,0.9625598277907788
0.40223012160093824,-0.42496336230363413,0.9625598277907788
0.40223012160093824,1.341127588772824,-0.42496336230363413
0.40223012160093824,1.341127588772824,0.9625598277907788
0.40223012160093824,1.341127588772824,-2.12285048767787
0.40223012160093824,-2.12285048767787,-0.42496336230363413
0.40223012160093824,-2.12285048767787,0.9625598277907788
1.341127588772824,-0.42496336230363413,0.9625598277907788
1.341127588772824,-2.12285048767787,-0.42496336230363413
1.341127588772824,-2.12285048767787,0.9625598277907788
-2.12285048767787,-0.42496336230363413,0.9625598277907788
