0,1,2
0.05953204191932869,0.5491824268890904,-0.9685407923394291
0.05953204191932869,0.5491824268890904,-0.9489216559074644
0.05953204191932869,0.5491824268890904,0.9342048081828069
0.05953204191932869,0.5491824268890904,-0.26973656239187993
0.05953204191932869,0.5491824268890904,1.236601435381949
0.05953204191932869,0.5491824268890904,1.1396770791309145
0.05953204191932869,0.5491824268890904,-1.8713915544994562
0.05953204191932869,0.5491824268890904,-1.457012441361209
0.05953204191932869,-0.9685407923394291,-0.9489216559074644
0.05953204191932869,-0.9685407923394291,0.9342048081828069
0.05953204191932869,-0.9685407923394291,-0.26973656239187993
0.05953204191932869,-0.9685407923394291,1.236601435381949
0.05953204191932869,-0.9685407923394291,1.1396770791309145
0.05953204191932869,-0.9685407923394291,-1.8713915544994562
0.05953204191932869,-0.9685407923394291,-1.457012441361209
0.05953204191932869,-0.9489216559074644,0.9342048081828069
0.05953204191932869,-0.9489216559074644,-0.26973656239187993
0.05953204191932869,-0.9489216559074644,1.236601435381949
0.05953204191932869,-0.9489216559074644,1.1396770791309145
0.05953204191932869,-0.9489216559074644,-1.8713915544994562
0.05953204191932869,-0.9489216559074644,-1.457012441361209
0.05953204191932869,0.9342048081828069,-1.8713915544994562
0.05953204191932869,0.9342048081828069,-1.457012441361209
0.05953204191932869,0.9342048081828069,-0.26973656239187993
0.05953204191932869,0.9342048081828069,1.236601435381949
0.05953204191932869,0.9342048081828069,1.1396770791309145
0.05953204191932869,-0.26973656239187993,-1.8713915544994562
0.05953204191932869,-0.26973656239187993,-1.457012441361209
0.05953204191932869,-0.26973656239187993,1.236601435381949
0.05953204191932869,-0.26973656239187993,1.1396770791309145
0.05953204191932869,1.236601435381949,-1.8713915544994562
0.05953204191932869,1.236601435381949,-1.457012441361209
0.05953204191932869,1.236601435381949,1.1396770791309145
0.05953204191932869,1.1396770791309145,-1.8713915544994562
0.05953204191932869,1.1396770791309145,-1.457012441361209
0.05953204191932869,-1.8713915544994562,-1.457012441361209
0.5491824268890904,-0.9685407923394291,-0.9489216559074644
0.5491824268890904,-0.9685407923394291,0.9342048081828069
0.5491824268890904,-0.9685407923394291,-0.26973656239187993
0.5491824268890904,-0.9685407923394291,1.236601435381949
0.5491824268890904,-0.9685407923394291,1.1396770791309145
0.5491824268890904,-0.9685407923394291,-1.8713915544994562
0.5491824268890904,-0.9685407923394291,-1.457012441361209
0.5491824268890904,-0.9489216559074644,0.9342048081828069
0.5491824268890904,-0.9489216559074644,-0.26973656239187993
0.5491824268890904,-0.9489216559074644,1.236601435381949
0.5491824268890904,-0.9489216559074644,1.1396770791309145
0.5491824268890904,-0.9489216559074644,-1.8713915544994562
0.5491824268890904,-0.9489216559074644,-1.457012441361209
0.5491824268890904,0.9342048081828069,-1.8713915544994562
0.5491824268890904,0.9342048081828069,-1.457012441361209
0.5491824268890904,0.9342048081828069,-0.26973656239187993
0.5491824268890904,0.9342048081828069,1.236601435381949
0.5491824268890904,0.9342048081828069,1.1396770791309145
0.5491824268890904,-0.26973656239187993,-1.8713915544994562
0.5491824268890904,-0.26973656239187993,-1.457012441361209
0.5491824268890904,-0.26973656239187993,1.236601435381949
0.5491824268890904,-0.26973656239187993,1.1396770791309145
0.5491824268890904,1.236601435381949,-1.8713915544994562
0.5491824268890904,1.236601435381949,-1.457012441361209
0.5491824268890904,1.236601435381949,1.1396770791309145
0.5491824268890904,1.1396770791309145,-1.8713915544994562
0.5491824268890904,1.1396770791309145,-1.457012441361209
0.5491824268890904,-1.8713915544994562,-1.457012441361209
-0.9685407923394291,-0.9489216559074644,0.9342048081828069
-0.9685407923394291,-0.9489216559074644,-0.26973656239187993
-0.9685407923394291,-0.9489216559074644,1.236601435381949
-0.9685407923394291,-0.9489216559074644,1.1396770791309145
-0.9685407923394291,-0.9489216559074644,-1.8713915544994562
-0.9685407923394291,-0.9489216559074644,-1.457012441361209
-0.9685407923394291,0.9342048081828069,-1.8713915544994562
-0.9685407923394291,0.9342048081828069,-1.457012441361209
-0.9685407923394291,0.9342048081828069,-0.26973656239187993
-0.9685407923394291,0.9342048081828069,1.236601435381949
-0.9685407923394291,0.9342048081828069,1.1396770791309145
-0.9685407923394291,-0.26973656239187993,-1.8713915544994562
-0.9685407923394291,-0.26973656239187993,-1.457012441361209
-0.9685407923394291,-0.26973656239187993,1.236601435381949
-0.9685407923394291,-0.26973656239187993,1.1396770791309145
-0.9685407923394291,1.236601435381949,-1.8713915544994562
-0.9685407923394291,1.236601435381949,-1.457012441361209
-0.9685407923394291,1.236601435381949,1.1396770791309145
-0.9685407923394291,1.1396770791309145,-1.8713915544994562
-0.9685407923394291,1.1396770791309145,-1.457012441361209
-0.9685407923394291,-1.8713915544994562,-1.457012441361209
-0.9489216559074644,0.9342048081828069,-1.8713915544994562
-0.9489216559074644,0.9342048081828069,-1.457012441361209
-0.9489216559074644,0.9342048081828069,-0.26973656239187993
-0.9489216559074644,0.9342048081828069,1.236601435381949
-0.9489216559074644,0.9342048081828069,1.1396770791309145
-0.9489216559074644,-0.26973656239187993,-1.8713915544994562
-0.9489216559074644,-0.26973656239187993,-1.457012441361209
-0.9489216559074644,-0.26973656239187993,1.236601435381949
-0.9489216559074644,-0.26973656239187993,1.1396770791309145
-0.9489216559074644,1.236601435381949,-1.8713915544994562
-0.9489216559074644,1.236601435381949,-1.457012441361209
-0.9489216559074644,1.236601435381949,1.1396770791309145
-0.9489216559074644,1.1396770791309145,-1.8713915544994562
-0.9489216559074644,1.1396770791309145,-1.457012441361209
-0.9489216559074644,-1.8713915544994562,-1.457012441361209
0.9342048081828069,-1.8713915544994562,-1.457012441361209
0.9342048081828069,-0.26973656239187993,-1.8713915544994562
0.9342048081828069,-0.26973656239187993,-1.457012441361209
0.9342048081828069,-0.26973656239187993,1.236601435381949
0.9342048081828069,-0.26973656239187993,1.1396770791309145
0.9342048081828069,1.236601435381949,-1.8713915544994562
0.9342048081828069,1.236601435381949,-1.457012441361209
0.9342048081828069,1.236601435381949,1.1396770791309145
0.9342048081828069,1.1396770791309145,-1.8713915544994562
0.9342048081828069,1.1396770791309145,-1.457012441361209
-0.26973656239187993,-1.8713915544994562,-1.457012441361209
-0.26973656239187993,1.236601435381949,-1.8713915544994562
-0.26973656239187993,1.236601435381949,-1.457012441361209
-0.26973656239187993,1.236601435381949,1.1396770791309145
-0.26973656239187993,1.1396770791309145,-1.8713915544994562
-0.26973656239187993,1.1396770791309145,-1.457012441361209
1.236601435381949,-1.8713915544994562,-1.457012441361209
1.236601435381949,1.1396770791309145,-1.8713915544994562
1.236601435381949,1.1396770791309145,-1.457012441361209
1.1396770791309145,-1.8713915544994562,-1.457012441361209
