0,1,2
0.8998084560191236,-1.7899620758216375,-1.121653835094912
0.8998084560191236,-1.7899620758216375,1.0253905054519872
0.8998084560191236,-1.7899620758216375,-0.4693991275469224
0.8998084560191236,-1.7899620758216375,-0.3695857879195705
0.8998084560191236,-1.7899620758216375,-1.28999077359573
0.8998084560191236,-1.7899620758216375,-0.6768860166809066
0.8998084560191236,-1.7899620758216375,0.29681538730447493
0.8998084560191236,-1.7899620758216375,2.373816194690791
0.8998084560191236,-1.121653835094912,1.0253905054519872
0.8998084560191236,-1.121653835094912,-0.4693991275469224
0.8998084560191236,-1.121653835094912,-0.3695857879195705
0.8998084560191236,-1.121653835094912,-1.28999077359573
0.8998084560191236,-1.121653835094912,-0.6768860166809066
0.8998084560191236,-1.121653835094912,0.29681538730447493
0.8998084560191236,-1.121653835094912,2.373816194690791
0.8998084560191236,1.0253905054519872,-0.4693991275469224
0.8998084560191236,1.0253905054519872,-0.3695857879195705
0.8998084560191236,1.0253905054519872,-1.28999077359573
0.8998084560191236,1.0253905054519872,-0.6768860166809066
0.8998084560191236,1.0253905054519872,0.29681538730447493
0.8998084560191236,1.0253905054519872,2.373816194690791
0.8998084560191236,-0.4693991275469224,0.29681538730447493
0.8998084560191236,-0.4693991275469224,2.373816194690791
0.8998084560191236,-0.4693991275469224,-0.3695857879195705
0.8998084560191236,-0.4693991275469224,-1.28999077359573
0.8998084560191236,-0.4693991275469224,-0.6768860166809066
0.8998084560191236,-0.3695857879195705,0.29681538730447493
0.8998084560191236,-0.3695857879195705,2.373816194690791
0.8998084560191236,-0.3695857879195705,-1.28999077359573
0.8998084560191236,-0.3695857879195705,-0.6768860166809066
0.8998084560191236,-1.28999077359573,0.29681538730447493
0.8998084560191236,-1.28999077359573,2.373816194690791
0.8998084560191236,-1.28999077359573,-0.6768860166809066
0.8998084560191236,-0.6768860166809066,0.29681538730447493
0.8998084560191236,-0.6768860166809066,2.373816194690791
0.8998084560191236,0.29681538730447493,2.373816194690791
-1.7899620758216375,-1.121653835094912,1.0253905054519872
-1.7899620758216375,-1.121653835094912,-0.4693991275469224
-1.7899620758216375,-1.121653835094912,-0.3695857879195705
-1.7899620758216375,-1.121653835094912,-1.28999077359573
-1.7899620758216375,-1.121653835094912,-0.6768860166809066
-1.7899620758216375,-1.121653835094912,0.29681538730447493
-1.7899620758216375,-1.121653835094912,2.373816194690791
-1.7899620758216375,1.0253905054519872,-0.4693991275469224
-1.7899620758216375,1.0253905054519872,-0.3695857879195705
-1.7899620758216375,1.0253905054519872,-1.28999077359573
-1.7899620758216375,1.0253905054519872,-0.6768860166809066
-1.7899620758216375,1.0253905054519872,0.29681538730447493
-1.7899620758216375,1.0253905054519872,2.373816194690791
-1.7899620758216375,-0.4693991275469224,0.29681538730447493
-1.7899620758216375,-0.4693991275469224,2.373816194690791
-1.7899620758216375,-0.4693991275469224,-0.3695857879195705
-1.7899620758216375,-0.4693991275469224,-1.28999077359573
-1.7899620758216375,-0.4693991275469224,-0.6768860166809066
-1.7899620758216375,-0.3695857879195705,0.29681538730447493
-1.7899620758216375,-0.3695857879195705,2.373816194690791
-1.7899620758216375,-0.3695857879195705,-1.28999077359573
-1.7899620758216375,-0.3695857879195705,-0.6768860166809066
-1.7899620758216375,-1.28999077359573,0.29681538730447493
-1.7899620758216375,-1.28999077359573,2.373816194690791
-1.7899620758216375,-1.28999077359573,-0.6768860166809066
-1.7899620758216375,-0.6768860166809066,0.29681538730447493
-1.7899620758216375,-0.6768860166809066,2.373816194690791
-1.7899620758216375,0.29681538730447493,2.373816194690791
-1.121653835094912,1.0253905054519872,-0.4693991275469224
-1.121653835094912,1.0253905054519872,-0.3695857879195705
-1.121653835094912,1.0253905054519872,-1.28999077359573
-1.121653835094912,1.0253905054519872,-0.6768860166809066
-1.121653835094912,1.0253905054519872,0.29681538730447493
-1.121653835094912,1.0253905054519872,2.373816194690791
-1.121653835094912,-0.4693991275469224,0.29681538730447493
-1.121653835094912,-0.4693991275469224,2.373816194690791
-1.121653835094912,-0.4693991275469224,-0.3695857879195705
-1.121653835094912,-0.4693991275469224,-1.28999077359573
-1.121653835094912,-0.4693991275469224,-0.6768860166809066
-1.121653835094912,-0.3695857879195705,0.29681538730447493
-1.121653835094912,-0.3695857879195705,2.373816194690791
-1.121653835094912,-0.3695857879195705,-1.28999077359573
-1.121653835094912,-0.3695857879195705,-0.6768860166809066
-1.121653835094912,-1.28999077359573,0.29681538730447493
-1.121653835094912,-1.28999077359573,2.373816194690791
-1.121653835094912,-1.28999077359573,-0.6768860166809066
-1.121653835094912,-0.6768860166809066,0.29681538730447493
-1.121653835094912,-0.6768860166809066,2.373816194690791
-1.121653835094912,0.29681538730447493,2.373816194690791
1.0253905054519872,-0.4693991275469224,0.29681538730447493
1.0253905054519872,-0.4693991275469224,2.373816194690791
1.0253905054519872,-0.4693991275469224,-0.3695857879195705
1.0253905054519872,-0.4693991275469224,-1.28999077359573
1.0253905054519872,-0.4693991275469224,-0.6768860166809066
1.0253905054519872,-0.3695857879195705,0.29681538730447493
1.0253905054519872,-0.3695857879195705,2.373816194690791
1.0253905054519872,-0.3695857879195705,-1.28999077359573
1.0253905054519872,-0.3695857879195705,-0.6768860166809066
1.0253905054519872,-1.28999077359573,0.29681538730447493
1.0253905054519872,-1.28999077359573,2.373816194690791
1.0253905054519872,-1.28999077359573,-0.6768860166809066
1.0253905054519872,-0.6768860166809066,0.29681538730447493
1.0253905054519872,-0.6768860166809066,2.373816194690791
1.0253905054519872,0.29681538730447493,2.373816194690791
-0.4693991275469224,0.29681538730447493,2.373816194690791
-0.4693991275469224,-0.3695857879195705,0.29681538730447493
-0.4693991275469224,-0.3695857879195705,2.373816194690791
-0.4693991275469224,-0.3695857879195705,-1.28999077359573
-0.4693991275469224,-0.3695857879195705,-0.6768860166809066
-0.4693991275469224,-1.28999077359573,0.29681538730447493
-0.4693991275469224,-1.28999077359573,2.373816194690791
-0.4693991275469224,-1.28999077359573,-0.6768860166809066
-0.4693991275469224,-0.6768860166809066,0.29681538730447493
-0.4693991275469224,-0.6768860166809066,2.373816194690791
-0.3695857879195705,0.29681538730447493,2.373816194690791
-0.3695857879195705,-1.28999077359573,0.29681538730447493
-0.3695857879195705,-1.28999077359573,2.373816194690791
-0.3695857879195705,-1.28999077359573,-0.6768860166809066
-0.3695857879195705,-0.6768860166809066,0.29681538730447493
-0.3695857879195705,-0.6768860166809066,2.373816194690791
-1.28999077359573,0.29681538730447493,2.373816194690791
-1.28999077359573,-0.6768860166809066,0.29681538730447493
-1.28999077359573,-0.6768860166809066,2.373816194690791
-0.6768860166809066,0.29681538730447493,2.373816194690791
