0,1,2
1.2856096117913736,-0.34954487718811833,0.5784397696857662
1.2856096117913736,-0.34954487718811833,-0.40989896277631666
1.2856096117913736,-0.34954487718811833,-0.8262531350478777
1.2856096117913736,-0.34954487718811833,0.0407112317305235
1.2856096117913736,-0.34954487718811833,0.87584195746295
1.2856096117913736,-0.34954487718811833,1.4885027352104694
1.2856096117913736,-0.34954487718811833,-0.818915866472787
1.2856096117913736,-0.34954487718811833,-0.21846096887654004
1.2856096117913736,0.5784397696857662,-0.40989896277631666
1.2856096117913736,0.5784397696857662,-0.8262531350478777
1.2856096117913736,0.5784397696857662,0.0407112317305235
1.2856096117913736,0.5784397696857662,0.87584195746295
1.2856096117913736,0.5784397696857662,1.4885027352104694
1.2856096117913736,0.5784397696857662,-0.818915866472787
1.2856096117913736,0.5784397696857662,-0.21846096887654004
1.2856096117913736,-0.40989896277631666,-0.8262531350478777
1.2856096117913736,-0.40989896277631666,0.0407112317305235
1.2856096117913736,-0.40989896277631666,0.87584195746295
1.2856096117913736,-0.40989896277631666,1.4885027352104694
1.2856096117913736,-0.40989896277631666,-0.818915866472787
1.2856096117913736,-0.40989896277631666,-0.21846096887654004
1.2856096117913736,-0.8262531350478777,-0.818915866472787
1.2856096117913736,-0.8262531350478777,-0.21846096887654004
1.2856096117913736,-0.8262531350478777,0.0407112317305235
1.2856096117913736,-0.8262531350478777,0.87584195746295
1.2856096117913736,-0.8262531350478777,1.4885027352104694
1.2856096117913736,0.0407112317305235,-0.818915866472787
1.2856096117913736,0.0407112317305235,-0.21846096887654004
1.2856096117913736,0.0407112317305235,0.87584195746295
1.2856096117913736,0.0407112317305235,1.4885027352104694
1.2856096117913736,0.87584195746295,-0.818915866472787
1.2856096117913736,0.87584195746295,-0.21846096887654004
1.2856096117913736,0.87584195746295,1.4885027352104694
1.2856096117913736,1.4885027352104694,-0.818915866472787
1.2856096117913736,1.4885027352104694,-0.21846096887654004
1.2856096117913736,-0.818915866472787,-0.21846096887654004
-0.34954487718811833,0.5784397696857662,-0.40989896277631666
-0.34954487718811833,0.5784397696857662,-0.8262531350478777
-0.34954487718811833,0.5784397696857662,0.0407112317305235
-0.34954487718811833,0.5784397696857662,0.87584195746295
-0.34954487718811833,0.5784397696857662,1.4885027352104694
-0.34954487718811833,0.5784397696857662,-0.818915866472787
-0.34954487718811833,0.5784397696857662,-0.21846096887654004
-0.34954487718811833,-0.40989896277631666,-0.8262531350478777
-0.34954487718811833,-0.40989896277631666,0.0407112317305235
-0.34954487718811833,-0.40989896277631666,0.87584195746295
-0.34954487718811833,-0.40989896277631666,1.4885027352104694
-0.34954487718811833,-0.40989896277631666,-0.818915866472787
-0.34954487718811833,-0.40989896277631666,-0.21846096887654004
-0.34954487718811833,-0.8262531350478777,-0.818915866472787
-0.34954487718811833,-0.8262531350478777,-0.21846096887654004
-0.34954487718811833,-0.8262531350478777,0.0407112317305235
-0.34954487718811833,-0.8262531350478777,0.87584195746295
-0.34954487718811833,-0.8262531350478777,1.4885027352104694
-0.34954487718811833,0.0407112317305235,-0.818915866472787
-0.34954487718811833,0.0407112317305235,-0.21846096887654004
-0.34954487718811833,0.0407112317305235,0.87584195746295
-0.34954487718811833,0.0407112317305235,1.4885027352104694
-0.34954487718811833,0.87584195746295,-0.818915866472787
-0.34954487718811833,0.87584195746295,-0.21846096887654004
-0.34954487718811833,0.87584195746295,1.4885027352104694
-0.34954487718811833,1.4885027352104694,-0.818915866472787
-0.34954487718811833,1.4885027352104694,-0.21846096887654004
-0.34954487718811833,-0.818915866472787,-0.21846096887654004
0.5784397696857662,-0.40989896277631666,-0.8262531350478777
0.5784397696857662,-0.40989896277631666,0.0407112317305235
0.5784397696857662,-0.40989896277631666,0.87584195746295
0.5784397696857662,-0.40989896277631666,1.4885027352104694
0.5784397696857662,-0.40989896277631666,-0.818915866472787
0.5784397696857662,-0.40989896277631666,-0.21846096887654004
0.5784397696857662,-0.8262531350478777,-0.818915866472787
0.5784397696857662,-0.8262531350478777,-0.21846096887654004
0.5784397696857662,-0.8262531350478777,0.0407112317305235
0.5784397696857662,-0.8262531350478777,0.87584195746295
0.5784397696857662,-0.8262531350478777,1.4885027352104694
0.5784397696857662,0.0407112317305235,-0.818915866472787
0.5784397696857662,0.0407112317305235,-0.21846096887654004
0.5784397696857662,0.0407112317305235,0.87584195746295
0.5784397696857662,0.0407112317305235,1.4885027352104694
0.5784397696857662,0.87584195746295,-0.818915866472787
0.5784397696857662,0.87584195746295,-0.21846096887654004
0.5784397696857662,0.87584195746295,1.4885027352104694
0.5784397696857662,1.4885027352104694,-0.818915866472787
0.5784397696857662,1.4885027352104694,-0.21846096887654004
0.5784397696857662,-0.818915866472787,-0.21846096887654004
-0.40989896277631666,-0.8262531350478777,-0.818915866472787
-0.40989896277631666,-0.8262531350478777,-0.21846096887654004
-0.40989896277631666,-0.8262531350478777,0.0407112317305235
-0.40989896277631666,-0.8262531350478777,0.87584195746295
-0.40989896277631666,-0.8262531350478777,1.4885027352104694
-0.40989896277631666,0.0407112317305235,-0.818915866472787
-0.40989896277631666,0.0407112317305235,-0.21846096887654004
-0.40989896277631666,0.0407112317305235,0.87584195746295
-0.40989896277631666,0.0407112317305235,1.4885027352104694
-0.40989896277631666,0.87584195746295,-0.818915866472787
-0.40989896277631666,0.87584195746295,-0.21846096887654004
-0.40989896277631666,0.87584195746295,1.4885027352104694
-0.40989896277631666,1.4885027352104694,-0.818915866472787
-0.40989896277631666,1.4885027352104694,-0.21846096887654004
-0.40989896277631666,-0.818915866472787,-0.21846096887654004
-0.8262531350478777,-0.818915866472787,-0.21846096887654004
-0.8262531350478777,0.0407112317305235,-0.818915866472787
-0.8262531350478777,0.0407112317305235,-0.21846096887654004
-0.8262531350478777,0.0407112317305235,0.87584195746295
-0.8262531350478777,0.0407112317305235,1.4885027352104694
-0.8262531350478777,0.87584195746295,-0.818915866472787
-0.8262531350478777,0.87584195746295,-0.21846096887654004
-0.8262531350478777,0.87584195746295,1.4885027352104694
-0.8262531350478777,1.4885027352104694,-0.818915866472787
-0.8262531350478777,1.4885027352104694,-0.21846096887654004
0.0407112317305235,-0.818915866472787,-0.21846096887654004
0.0407112317305235,0.87584195746295,-0.818915866472787
0.0407112317305235,0.87584195746295,-0.21846096887654004
0.0407112317305235,0.87584195746295,1.4885027352104694
0.0407112317305235,1.4885027352104694,-0.818915866472787
0.0407112317305235,1.4885027352104694,-0.21846096887654004
0.87584195746295,-0.818915866472787,-0.21846096887654004
0.87584195746295,1.4885027352104694,-0.818915866472787
0.87584195746295,1.4885027352104694,-0.21846096887654004
1.4885027352104694,-0.818915866472787,-0.21846096887654004
