0,1,2
1.3242613837564416,-0.20267523840789076,0.8503092642043449
1.3242613837564416,-0.20267523840789076,-0.19979914108134741
1.3242613837564416,-0.20267523840789076,1.420120281854155
1.3242613837564416,-0.20267523840789076,-1.0097540153177311
1.3242613837564416,-0.20267523840789076,0.11546953928952966
1.3242613837564416,-0.20267523840789076,0.8352564166578174
1.3242613837564416,-0.20267523840789076,1.7317364167970006
1.3242613837564416,-0.20267523840789076,0.20673699856581926
1.3242613837564416,0.8503092642043449,-0.19979914108134741
1.3242613837564416,0.8503092642043449,1.420120281854155
1.3242613837564416,0.8503092642043449,-1.0097540153177311
1.3242613837564416,0.8503092642043449,0.11546953928952966
1.3242613837564416,0.8503092642043449,0.8352564166578174
1.3242613837564416,0.8503092642043449,1.7317364167970006
1.3242613837564416,0.8503092642043449,0.20673699856581926
1.3242613837564416,-0.19979914108134741,1.420120281854155
1.3242613837564416,-0.19979914108134741,-1.0097540153177311
1.3242613837564416,-0.19979914108134741,0.11546953928952966
1.3242613837564416,-0.19979914108134741,0.8352564166578174
1.3242613837564416,-0.19979914108134741,1.7317364167970006
1.3242613837564416,-0.19979914108134741,0.20673699856581926
1.3242613837564416,1.420120281854155,1.7317364167970006
1.3242613837564416,1.420120281854155,0.20673699856581926
1.3242613837564416,1.420120281854155,-1.0097540153177311
1.3242613837564416,1.420120281854155,0.11546953928952966
1.3242613837564416,1.420120281854155,0.8352564166578174
1.3242613837564416,-1.0097540153177311,1.7317364167970006
1.3242613837564416,-1.0097540153177311,0.20673699856581926
1.3242613837564416,-1.0097540153177311,0.11546953928952966
1.3242613837564416,-1.0097540153177311,0.8352564166578174
1.3242613837564416,0.11546953928952966,1.7317364167970006
1.3242613837564416,0.11546953928952966,0.20673699856581926
1.3242613837564416,0.11546953928952966,0.8352564166578174
1.3242613837564416,0.8352564166578174,1.7317364167970006
1.3242613837564416,0.8352564166578174,0.20673699856581926
1.3242613837564416,1.7317364167970006,0.20673699856581926
-0.20267523840789076,0.8503092642043449,-0.19979914108134741
-0.20267523840789076,0.8503092642043449,1.420120281854155
-0.20267523840789076,0.8503092642043449,-1.0097540153177311
-0.20267523840789076,0.8503092642043449,0.11546953928952966
-0.20267523840789076,0.8503092642043449,0.8352564166578174
-0.20267523840789076,0.8503092642043449,1.7317364167970006
-0.20267523840789076,0.8503092642043449,0.20673699856581926
-0.20267523840789076,-0.19979914108134741,1.420120281854155
-0.20267523840789076,-0.19979914108134741,-1.0097540153177311
-0.20267523840789076,-0.19979914108134741,0.11546953928952966
-0.20267523840789076,-0.19979914108134741,0.8352564166578174
-0.20267523840789076,-0.19979914108134741,1.7317364167970006
-0.20267523840789076,-0.19979914108134741,0.20673699856581926
-0.20267523840789076,1.420120281854155,1.7317364167970006
-0.20267523840789076,1.420120281854155,0.20673699856581926
-0.20267523840789076,1.420120281854155,-1.0097540153177311
-0.20267523840789076,1.420120281854155,0.11546953928952966
-0.20267523840789076,1.420120281854155,0.8352564166578174
-0.20267523840789076,-1.0097540153177311,1.7317364167970006
-0.20267523840789076,-1.0097540153177311,0.20673699856581926
-0.20267523840789076,-1.0097540153177311,0.11546953928952966
-0.20267523840789076,-1.0097540153177311,0.8352564166578174
-0.20267523840789076,0.11546953928952966,1.7317364167970006
-0.20267523840789076,0.11546953928952966,0.20673699856581926
-0.20267523840789076,0.11546953928952966,0.8352564166578174
-0.20267523840789076,0.8352564166578174,1.7317364167970006
-0.20267523840789076,0.8352564166578174,0.20673699856581926
-0.20267523840789076,1.7317364167970006,0.20673699856581926
0.8503092642043449,-0.19979914108134741,1.420120281854155
0.8503092642043449,-0.19979914108134741,-1.0097540153177311
0.8503092642043449,-0.19979914108134741,0.11546953928952966
0.8503092642043449,-0.19979914108134741,0.8352564166578174
0.8503092642043449,-0.19979914108134741,1.7317364167970006
0.8503092642043449,-0.19979914108134741,0.20673699856581926
0.8503092642043449,1.420120281854155,1.7317364167970006
0.8503092642043449,1.420120281854155,0.20673699856581926
0.8503092642043449,1.420120281854155,-1.0097540153177311
0.8503092642043449,1.420120281854155,0.11546953928952966
0.8503092642043449,1.420120281854155,0.8352564166578174
0.8503092642043449,-1.0097540153177311,1.7317364167970006
0.8503092642043449,-1.0097540153177311,0.20673699856581926
0.8503092642043449,-1.0097540153177311,0.11546953928952966
0.8503092642043449,-1.0097540153177311,0.8352564166578174
0.8503092642043449,0.11546953928952966,1.7317364167970006
0.8503092642043449,0.11546953928952966,0.20673699856581926
0.8503092642043449,0.11546953928952966,0.8352564166578174
0.8503092642043449,0.8352564166578174,1.7317364167970006
0.8503092642043449,0.8352564166578174,0.20673699856581926
0.8503092642043449,1.7317364167970006,0.20673699856581926
-0.19979914108134741,1.420120281854155,1.7317364167970006
-0.19979914108134741,1.420120281854155,0.20673699856581926
-0.19979914108134741,1.420120281854155,-1.0097540153177311
-0.19979914108134741,1.420120281854155,0.11546953928952966
-0.19979914108134741,1.420120281854155,0.8352564166578174
-0.19979914108134741,-1.0097540153177311,1.7317364167970006
-0.19979914108134741,-1.0097540153177311,0.20673699856581926
-0.19979914108134741,-1.0097540153177311,0.11546953928952966
-0.19979914108134741,-1.0097540153177311,0.8352564166578174
-0.19979914108134741,0.11546953928952966,1.7317364167970006
-0.19979914108134741,0.11546953928952966,0.20673699856581926
-0.19979914108134741,0.11546953928952966,0.8352564166578174
-0.19979914108134741,0.8352564166578174,1.7317364167970006
-0.19979914108134741,0.8352564166578174,0.20673699856581926
-0.19979914108134741,1.7317364167970006,0.20673699856581926
1.420120281854155,1.7317364167970006,0.20673699856581926
1.420120281854155,-1.0097540153177311,1.7317364167970006
1.420120281854155,-1.0097540153177311,0.20673699856581926
1.420120281854155,-1.0097540153177311,0.11546953928952966
1.420120281854155,-1.0097540153177311,0.8352564166578174
1.420120281854155,0.11546953928952966,1.7317364167970006
1.420120281854155,0.11546953928952966,0.20673699856581926
1.420120281854155,0.11546953928952966,0.8352564166578174
1.420120281854155,0.8352564166578174,1.7317364167970006
1.420120281854155,0.8352564166578174,0.20673699856581926
-1.0097540153177311,1.7317364167970006,0.20673699856581926
-1.0097540153177311,0.11546953928952966,1.7317364167970006
-1.0097540153177311,0.11546953928952966,0.20673699856581926
-1.0097540153177311,0.11546953928952966,0.8352564166578174
-1.0097540153177311,0.8352564166578174,1.7317364167970006
-1.0097540153177311,0.8352564166578174,0.20673699856581926
0.11546953928952966,1.7317364167970006,0.20673699856581926
0.11546953928952966,0.8352564166578174,1.7317364167970006
0.11546953928952966,0.8352564166578174,0.20673699856581926
0.8352564166578174,1.7317364167970006,0.20673699856581926
