0,1,2
0.701297077783722,-2.490682138024049,-0.797342602127629
0.701297077783722,-2.490682138024049,0.9149453944806796
0.701297077783722,-2.490682138024049,0.8006371478866806
0.701297077783722,-2.490682138024049,-1.1164966161356369
0.701297077783722,-2.490682138024049,0.03873090438747587
0.701297077783722,-2.490682138024049,0.17477175357922278
0.701297077783722,-2.490682138024049,2.4581388095578585
0.701297077783722,-2.490682138024049,1.2561894224887806
0.701297077783722,-0.797342602127629,0.9149453944806796
0.701297077783722,-0.797342602127629,0.8006371478866806
0.701297077783722,-0.797342602127629,-1.1164966161356369
0.701297077783722,-0.797342602127629,0.03873090438747587
0.701297077783722,-0.797342602127629,0.17477175357922278
0.701297077783722,-0.797342602127629,2.4581388095578585
0.701297077783722,-0.797342602127629,1.2561894224887806
0.701297077783722,0.9149453944806796,0.8006371478866806
0.701297077783722,0.9149453944806796,-1.1164966161356369
0.701297077783722,0.9149453944806796,0.03873090438747587
0.701297077783722,0.9149453944806796,0.17477175357922278
0.701297077783722,0.9149453944806796,2.4581388095578585
0.701297077783722,0.9149453944806796,1.2561894224887806
0.701297077783722,0.8006371478866806,2.4581388095578585
0.701297077783722,0.8006371478866806,1.2561894224887806
0.701297077783722,0.8006371478866806,-1.1164966161356369
0.701297077783722,0.8006371478866806,0.03873090438747587
0.701297077783722,0.8006371478866806,0.17477175357922278
0.701297077783722,-1.1164966161356369,2.4581388095578585
0.701297077783722,-1.1164966161356369,1.2561894224887806
0.701297077783722,-1.1164966161356369,0.03873090438747587
0.701297077783722,-1.1164966161356369,0.17477175357922278
0.701297077783722,0.03873090438747587,2.4581388095578585
0.701297077783722,0.03873090438747587,1.2561894224887806
0.701297077783722,0.03873090438747587,0.17477175357922278
0.701297077783722,0.17477175357922278,2.4581388095578585
0.701297077783722,0.17477175357922278,1.2561894224887806
0.701297077783722,2.4581388095578585,1.2561894224887806
-2.490682138024049,-0.797342602127629,0.9149453944806796
-2.490682138024049,-0.797342602127629,0.8006371478866806
-2.490682138024049,-0.797342602127629,-1.1164966161356369
-2.490682138024049,-0.797342602127629,0.03873090438747587
-2.490682138024049,-0.797342602127629,0.17477175357922278
-2.490682138024049,-0.797342602127629,2.4581388095578585
-2.490682138024049,-0.797342602127629,1.2561894224887806
-2.490682138024049,0.9149453944806796,0.8006371478866806
-2.490682138024049,0.9149453944806796,-1.1164966161356369
-2.490682138024049,0.9149453944806796,0.03873090438747587
-2.490682138024049,0.9149453944806796,0.17477175357922278
-2.490682138024049,0.9149453944806796,2.4581388095578585
-2.490682138024049,0.9149453944806796,1.2561894224887806
-2.490682138024049,0.8006371478866806,2.4581388095578585
-2.490682138024049,0.8006371478866806,1.2561894224887806
-2.490682138024049,0.8006371478866806,-1.1164966161356369
-2.490682138024049,0.8006371478866806,0.03873090438747587
-2.490682138024049,0.8006371478866806,0.17477175357922278
-2.490682138024049,-1.1164966161356369,2.4581388095578585
-2.490682138024049,-1.1164966161356369,1.2561894224887806
-2.490682138024049,-1.1164966161356369,0.03873090438747587
-2.490682138024049,-1.1164966161356369,0.17477175357922278
-2.490682138024049,0.03873090438747587,2.4581388095578585
-2.490682138024049,0.03873090438747587,1.2561894224887806
-2.490682138024049,0.03873090438747587,0.17477175357922278
-2.490682138024049,0.17477175357922278,2.4581388095578585
-2.490682138024049,0.17477175357922278,1.2561894224887806
-2.490682138024049,2.4581388095578585,1.2561894224887806
-0.797342602127629,0.9149453944806796,0.8006371478866806
-0.797342602127629,0.9149453944806796,-1.1164966161356369
-0.797342602127629,0.9149453944806796,0.03873090438747587
-0.797342602127629,0.9149453944806796,0.17477175357922278
-0.797342602127629,0.9149453944806796,2.4581388095578585
-0.797342602127629,0.9149453944806796,1.2561894224887806
-0.797342602127629,0.8006371478866806,2.4581388095578585
-0.797342602127629,0.8006371478866806,1.2561894224887806
-0.797342602127629,0.8006371478866806,-1.1164966161356369
-0.797342602127629,0.8006371478866806,0.03873090438747587
-0.797342602127629,0.8006371478866806,0.17477175357922278
-0.797342602127629,-1.1164966161356369,2.4581388095578585
-0.797342602127629,-1.1164966161356369,1.2561894224887806
-0.797342602127629,-1.1164966161356369,0.03873090438747587
-0.797342602127629,-1.1164966161356369,0.17477175357922278
-0.797342602127629,0.03873090438747587,2.4581388095578585
-0.797342602127629,0.03873090438747587,1.2561894224887806
-0.797342602127629,0.03873090438747587,0.17477175357922278
-0.797342602127629,0.17477175357922278,2.4581388095578585
-0.797342602127629,0.17477175357922278,1.2561894224887806
-0.797342602127629,2.4581388095578585,1.2561894224887806
0.9149453944806796,0.8006371478866806,2.4581388095578585
0.9149453944806796,0.8006371478866806,1.2561894224887806
0.9149453944806796,0.8006371478866806,-1.1164966161356369
0.9149453944806796,0.8006371478866806,0.03873090438747587
0.9149453944806796,0.8006371478866806,0.17477175357922278
0.9149453944806796,-1.1164966161356369,2.4581388095578585
0.9149453944806796,-1.1164966161356369,1.2561894224887806
0.9149453944806796,-1.1164966161356369,0.03873090438747587
0.9149453944806796,-1.1164966161356369,0.17477175357922278
0.9149453944806796,0.03873090438747587,2.4581388095578585
0.9149453944806796,0.03873090438747587,1.2561894224887806
0.9149453944806796,0.03873090438747587,0.17477175357922278
0.9149453944806796,0.17477175357922278,2.4581388095578585
0.9149453944806796,0.17477175357922278,1.2561894224887806
0.9149453944806796,2.4581388095578585,1.2561894224887806
0.8006371478866806,2.4581388095578585,1.2561894224887806
0.8006371478866806,-1.1164966161356369,2.4581388095578585
0.8006371478866806,-1.1164966161356369,1.2561894224887806
0.8006371478866806,-1.1164966161356369,0.03873090438747587
0.8006371478866806,-1.1164966161356369,0.17477175357922278
0.8006371478866806,0.03873090438747587,2.4581388095578585
0.8006371478866806,0.03873090438747587,1.2561894224887806
0.8006371478866806,0.03873090438747587,0.17477175357922278
0.8006371478866806,0.17477175357922278,2.4581388095578585
0.8006371478866806,0.17477175357922278,1.2561894224887806
-1.1164966161356369,2.4581388095578585,1.2561894224887806
-1.1164966161356369,0.03873090438747587,2.4581388095578585
-1.1164966161356369,0.03873090438747587,1.2561894224887806
-1.1164966161356369,0.03873090438747587,0.17477175357922278
-1.1164966161356369,0.17477175357922278,2.4581388095578585
-1.1164966161356369,0.17477175357922278,1.2561894224887806
0.03873090438747587,2.4581388095578585,1.2561894224887806
0.03873090438747587,0.17477175357922278,2.4581388095578585
0.03873090438747587,0.17477175357922278,1.2561894224887806
0.17477175357922278,2.4581388095578585,1.2561894224887806
