0,1,2
1.6474100467884787,1.154188943595257,-1.7432277692634306
1.6474100467884787,1.154188943595257,0.6249581375938875
1.6474100467884787,1.154188943595257,0.6336037429096997
1.6474100467884787,1.154188943595257,2.3972028833426933
1.6474100467884787,1.154188943595257,0.5636084977737473
1.6474100467884787,1.154188943595257,0.9697468311180715
1.6474100467884787,1.154188943595257,0.8895592613397474
1.6474100467884787,1.154188943595257,-1.7846282187994633
1.6474100467884787,-1.7432277692634306,0.6249581375938875
1.6474100467884787,-1.7432277692634306,0.6336037429096997
1.6474100467884787,-1.7432277692634306,2.3972028833426933
1.6474100467884787,-1.7432277692634306,0.5636084977737473
1.6474100467884787,-1.7432277692634306,0.9697468311180715
1.6474100467884787,-1.7432277692634306,0.8895592613397474
1.6474100467884787,-1.7432277692634306,-1.7846282187994633
1.6474100467884787,0.6249581375938875,0.6336037429096997
1.6474100467884787,0.6249581375938875,2.3972028833426933
1.6474100467884787,0.6249581375938875,0.5636084977737473
1.6474100467884787,0.6249581375938875,0.9697468311180715
1.6474100467884787,0.6249581375938875,0.8895592613397474
1.6474100467884787,0.6249581375938875,-1.7846282187994633
1.6474100467884787,0.6336037429096997,0.8895592613397474
1.6474100467884787,0.6336037429096997,-1.7846282187994633
1.6474100467884787,0.6336037429096997,2.3972028833426933
1.6474100467884787,0.6336037429096997,0.5636084977737473
1.6474100467884787,0.6336037429096997,0.9697468311180715
1.6474100467884787,2.3972028833426933,0.8895592613397474
1.6474100467884787,2.3972028833426933,-1.7846282187994633
1.6474100467884787,2.3972028833426933,0.5636084977737473
1.6474100467884787,2.3972028833426933,0.9697468311180715
1.6474100467884787,0.5636084977737473,0.8895592613397474
1.6474100467884787,0.5636084977737473,-1.7846282187994633
1.6474100467884787,0.5636084977737473,0.9697468311180715
1.6474100467884787,0.9697468311180715,0.8895592613397474
1.6474100467884787,0.9697468311180715,-1.7846282187994633
1.6474100467884787,0.8895592613397474,-1.7846282187994633
1.154188943595257,-1.7432277692634306,0.6249581375938875
1.154188943595257,-1.7432277692634306,0.6336037429096997
1.154188943595257,-1.7432277692634306,2.3972028833426933
1.154188943595257,-1.7432277692634306,0.5636084977737473
1.154188943595257,-1.7432277692634306,0.9697468311180715
1.154188943595257,-1.7432277692634306,0.8895592613397474
1.154188943595257,-1.7432277692634306,-1.7846282187994633
1.154188943595257,0.6249581375938875,0.6336037429096997
1.154188943595257,0.6249581375938875,2.3972028833426933
1.154188943595257,0.6249581375938875,0.5636084977737473
1.154188943595257,0.6249581375938875,0.9697468311180715
1.154188943595257,0.6249581375938875,0.8895592613397474
1.154188943595257,0.6249581375938875,-1.7846282187994633
1.154188943595257,0.6336037429096997,0.8895592613397474
1.154188943595257,0.6336037429096997,-1.7846282187994633
1.154188943595257,0.6336037429096997,2.3972028833426933
1.154188943595257,0.6336037429096997,0.5636084977737473
1.154188943595257,0.6336037429096997,0.9697468311180715
1.154188943595257,2.3972028833426933,0.8895592613397474
1.154188943595257,2.3972028833426933,-1.7846282187994633
1.154188943595257,2.3972028833426933,0.5636084977737473
1.154188943595257,2.3972028833426933,0.9697468311180715
1.154188943595257,0.5636084977737473,0.8895592613397474
1.154188943595257,0.5636084977737473,-1.7846282187994633
1.154188943595257,0.5636084977737473,0.9697468311180715
1.154188943595257,0.9697468311180715,0.8895592613397474
1.154188943595257,0.9697468311180715,-1.7846282187994633
1.154188943595257,0.8895592613397474,-1.7846282187994633
-1.7432277692634306,0.6249581375938875,0.6336037429096997
-1.7432277692634306,0.6249581375938875,2.3972028833426933
-1.7432277692634306,0.6249581375938875,0.5636084977737473
-1.7432277692634306,0.6249581375938875,0.9697468311180715
-1.7432277692634306,0.6249581375938875,0.8895592613397474
-1.7432277692634306,0.6249581375938875,-1.7846282187994633
-1.7432277692634306,0.6336037429096997,0.8895592613397474
-1.7432277692634306,0.6336037429096997,-1.7846282187994633
-1.7432277692634306,0.6336037429096997,2.3972028833426933
-1.7432277692634306,0.6336037429096997,0.5636084977737473
-1.7432277692634306,0.6336037429096997,0.9697468311180715
-1.7432277692634306,2.3972028833426933,0.8895592613397474
-1.7432277692634306,2.3972028833426933,-1.7846282187994633
-1.7432277692634306,2.3972028833426933,0.5636084977737473
-1.7432277692634306,2.3972028833426933,0.9697468311180715
-1.7432277692634306,0.5636084977737473,0.8895592613397474
-1.7432277692634306,0.5636084977737473,-1.7846282187994633
-1.7432277692634306,0.5636084977737473,0.9697468311180715
-1.7432277692634306,0.9697468311180715,0.8895592613397474
-1.7432277692634306,0.9697468311180715,-1.7846282187994633
-1.7432277692634306,0.8895592613397474,-1.7846282187994633
0.6249581375938875,0.6336037429096997,0.8895592613397474
0.6249581375938875,0.6336037429096997,-1.7846282187994633
0.6249581375938875,0.6336037429096997,2.3972028833426933
0.6249581375938875,0.6336037429096997,0.5636084977737473
0.6249581375938875,0.6336037429096997,0.9697468311180715
0.6249581375938875,2.3972028833426933,0.8895592613397474
0.6249581375938875,2.3972028833426933,-1.7846282187994633
0.6249581375938875,2.3972028833426933,0.5636084977737473
0.6249581375938875,2.3972028833426933,0.9697468311180715
0.6249581375938875,0.5636084977737473,0.8895592613397474
0.6249581375938875,0.5636084977737473,-1.7846282187994633
0.6249581375938875,0.5636084977737473,0.9697468311180715
0.6249581375938875,0.9697468311180715,0.8895592613397474
0.6249581375938875,0.9697468311180715,-1.7846282187994633
0.6249581375938875,0.8895592613397474,-1.7846282187994633
0.6336037429096997,0.8895592613397474,-1.7846282187994633
0.6336037429096997,2.3972028833426933,0.8895592613397474
0.6336037429096997,2.3972028833426933,-1.7846282187994633
0.6336037429096997,2.3972028833426933,0.5636084977737473
0.6336037429096997,2.3972028833426933,0.9697468311180715
0.6336037429096997,0.5636084977737473,0.8895592613397474
0.6336037429096997,0.5636084977737473,-1.7846282187994633
0.6336037429096997,0.5636084977737473,0.9697468311180715
0.6336037429096997,0.9697468311180715,0.8895592613397474
0.6336037429096997,0.9697468311180715,-1.7846282187994633
2.3972028833426933,0.8895592613397474,-1.7846282187994633
2.3972028833426933,0.5636084977737473,0.8895592613397474
2.3972028833426933,0.5636084977737473,-1.7846282187994633
2.3972028833426933,0.5636084977737473,0.9697468311180715
2.3972028833426933,0.9697468311180715,0.8895592613397474
2.3972028833426933,0.9697468311180715,-1.7846282187994633
0.5636084977737473,0.8895592613397474,-1.7846282187994633
0.5636084977737473,0.9697468311180715,0.8895592613397474
0.5636084977737473,0.9697468311180715,-1.7846282187994633
0.9697468311180715,0.8895592613397474,-1.7846282187994633
