0,1,2
0.8861739170670899,1.7555995489807508,-2.990244482149677
0.8861739170670899,1.7555995489807508,-0.5532214214082345
0.8861739170670899,1.7555995489807508,-1.0272190081981198
0.8861739170670899,1.7555995489807508,-0.1536518110394275
0.8861739170670899,1.7555995489807508,0.6338211523644309
0.8861739170670899,1.7555995489807508,2.5120207989355143
0.8861739170670899,1.7555995489807508,-0.8333281007072901
0.8861739170670899,1.7555995489807508,1.265653587249495
0.8861739170670899,-2.990244482149677,-0.5532214214082345
0.8861739170670899,-2.990244482149677,-1.0272190081981198
0.8861739170670899,-2.990244482149677,-0.1536518110394275
0.8861739170670899,-2.990244482149677,0.6338211523644309
0.8861739170670899,-2.990244482149677,2.5120207989355143
0.8861739170670899,-2.990244482149677,-0.8333281007072901
0.8861739170670899,-2.990244482149677,1.265653587249495
0.8861739170670899,-0.5532214214082345,-1.0272190081981198
0.8861739170670899,-0.5532214214082345,-0.1536518110394275
0.8861739170670899,-0.5532214214082345,0.6338211523644309
0.8861739170670899,-0.5532214214082345,2.5120207989355143
0.8861739170670899,-0.5532214214082345,-0.8333281007072901
0.8861739170670899,-0.5532214214082345,1.265653587249495
0.8861739170670899,-1.0272190081981198,-0.8333281007072901
0.8861739170670899,-1.0272190081981198,1.265653587249495
0.8861739170670899,-1.0272190081981198,-0.1536518110394275
0.8861739170670899,-1.0272190081981198,0.6338211523644309
0.8861739170670899,-1.0272190081981198,2.5120207989355143
0.8861739170670899,-0.1536518110394275,-0.8333281007072901
0.8861739170670899,-0.1536518110394275,1.265653587249495
0.8861739170670899,-0.1536518110394275,0.6338211523644309
0.8861739170670899,-0.1536518110394275,2.5120207989355143
0.8861739170670899,0.6338211523644309,-0.8333281007072901
0.8861739170670899,0.6338211523644309,1.265653587249495
0.8861739170670899,0.6338211523644309,2.5120207989355143
0.8861739170670899,2.5120207989355143,-0.8333281007072901
0.8861739170670899,2.5120207989355143,1.265653587249495
0.8861739170670899,-0.8333281007072901,1.265653587249495
1.7555995489807508,-2.990244482149677,-0.5532214214082345
1.7555995489807508,-2.990244482149677,-1.0272190081981198
1.7555995489807508,-2.990244482149677,-0.1536518110394275
1.7555995489807508,-2.990244482149677,0.6338211523644309
1.7555995489807508,-2.990244482149677,2.5120207989355143
1.7555995489807508,-2.990244482149677,-0.8333281007072901
1.7555995489807508,-2.990244482149677,1.265653587249495
1.7555995489807508,-0.5532214214082345,-1.0272190081981198
1.7555995489807508,-0.5532214214082345,-0.1536518110394275
1.7555995489807508,-0.5532214214082345,0.6338211523644309
1.7555995489807508,-0.5532214214082345,2.5120207989355143
1.7555995489807508,-0.5532214214082345,-0.8333281007072901
1.7555995489807508,-0.5532214214082345,1.265653587249495
1.7555995489807508,-1.0272190081981198,-0.8333281007072901
1.7555995489807508,-1.0272190081981198,1.265653587249495
1.7555995489807508,-1.0272190081981198,-0.1536518110394275
1.7555995489807508,-1.0272190081981198,0.6338211523644309
1.7555995489807508,-1.0272190081981198,2.5120207989355143
1.7555995489807508,-0.1536518110394275,-0.8333281007072901
1.7555995489807508,-0.1536518110394275,1.265653587249495
1.7555995489807508,-0.1536518110394275,0.6338211523644309
1.7555995489807508,-0.1536518110394275,2.5120207989355143
1.7555995489807508,0.6338211523644309,-0.8333281007072901
1.7555995489807508,0.6338211523644309,1.265653587249495
1.7555995489807508,0.6338211523644309,2.5120207989355143
1.7555995489807508,2.5120207989355143,-0.8333281007072901
1.7555995489807508,2.5120207989355143,1.265653587249495
1.7555995489807508,-0.8333281007072901,1.265653587249495
-2.990244482149677,-0.5532214214082345,-1.0272190081981198
-2.990244482149677,-0.5532214214082345,-0.1536518110394275
-2.990244482149677,-0.5532214214082345,0.6338211523644309
-2.990244482149677,-0.5532214214082345,2.5120207989355143
-2.990244482149677,-0.5532214214082345,-0.8333281007072901
-2.990244482149677,-0.5532214214082345,1.265653587249495
-2.990244482149677,-1.0272190081981198,-0.8333281007072901
-2.990244482149677,-1.0272190081981198,1.265653587249495
-2.990244482149677,-1.0272190081981198,-0.1536518110394275
-2.990244482149677,-1.0272190081981198,0.6338211523644309
-2.990244482149677,-1.0272190081981198,2.5120207989355143
-2.990244482149677,-0.1536518110394275,-0.8333281007072901
-2.990244482149677,-0.1536518110394275,1.265653587249495
-2.990244482149677,-0.1536518110394275,0.6338211523644309
-2.990244482149677,-0.1536518110394275,2.5120207989355143
-2.990244482149677,0.6338211523644309,-0.8333281007072901
-2.990244482149677,0.6338211523644309,1.265653587249495
-2.990244482149677,0.6338211523644309,2.5120207989355143
-2.990244482149677,2.5120207989355143,-0.8333281007072901
-2.990244482149677,2.5120207989355143,1.265653587249495
-2.990244482149677,-0.8333281007072901,1.265653587249495
-0.5532214214082345,-1.0272190081981198,-0.8333281007072901
-0.5532214214082345,-1.0272190081981198,1.265653587249495
-0.5532214214082345,-1.0272190081981198,-0.1536518110394275
-0.5532214214082345,-1.0272190081981198,0.6338211523644309
-0.5532214214082345,-1.0272190081981198,2.5120207989355143
-0.5532214214082345,-0.1536518110394275,-0.8333281007072901
-0.5532214214082345,-0.1536518110394275,1.265653587249495
-0.5532214214082345,-0.1536518110394275,0.6338211523644309
-0.5532214214082345,-0.1536518110394275,2.5120207989355143
-0.5532214214082345,0.6338211523644309,-0.8333281007072901
-0.5532214214082345,0.6338211523644309,1.265653587249495
-0.5532214214082345,0.6338211523644309,2.5120207989355143
-0.5532214214082345,2.5120207989355143,-0.8333281007072901
-0.5532214214082345,2.5120207989355143,1.265653587249495
-0.5532214214082345,-0.8333281007072901,1.265653587249495
-1.0272190081981198,-0.8333281007072901,1.265653587249495
-1.0272190081981198,-0.1536518110394275,-0.8333281007072901
-1.0272190081981198,-0.1536518110394275,1.265653587249495
-1.0272190081981198,-0.1536518110394275,0.6338211523644309
-1.0272190081981198,-0.1536518110394275,2.5120207989355143
-1.0272190081981198,0.6338211523644309,-0.8333281007072901
-1.0272190081981198,0.6338211523644309,1.265653587249495
-1.0272190081981198,0.6338211523644309,2.5120207989355143
-1.0272190081981198,2.5120207989355143,-0.8333281007072901
-1.0272190081981198,2.5120207989355143,1.265653587249495
-0.1536518110394275,-0.8333281007072901,1.265653587249495
-0.1536518110394275,0.6338211523644309,-0.8333281007072901
-0.1536518110394275,0.6338211523644309,1.265653587249495
-0.1536518110394275,0.6338211523644309,2.5120207989355143
-0.1536518110394275,2.5120207989355143,-0.8333281007072901
-0.1536518110394275,2.5120207989355143,1.265653587249495
0.6338211523644309,-0.8333281007072901,1.265653587249495
0.6338211523644309,2.5120207989355143,-0.8333281007072901
0.6338211523644309,2.5120207989355143,1.265653587249495
2.5120207989355143,-0.8333281007072901,1.265653587249495
