0,1,2
-0.6574074234991686,1.684038517713013,-0.29006162202198826
-0.6574074234991686,1.684038517713013,0.20222750590553037
-0.6574074234991686,1.684038517713013,0.04875791842469247
-0.6574074234991686,1.684038517713013,2.7292451544751812
-0.6574074234991686,1.684038517713013,-0.014624837950386403
-0.6574074234991686,1.684038517713013,3.853828576570687
-0.6574074234991686,1.684038517713013,1.04728564231083
-0.6574074234991686,1.684038517713013,1.7572510676608695
-0.6574074234991686,-0.29006162202198826,0.20222750590553037
-0.6574074234991686,-0.29006162202198826,0.04875791842469247
-0.6574074234991686,-0.29006162202198826,2.7292451544751812
-0.6574074234991686,-0.29006162202198826,-0.014624837950386403
-0.6574074234991686,-0.29006162202198826,3.853828576570687
-0.6574074234991686,-0.29006162202198826,1.04728564231083
-0.6574074234991686,-0.29006162202198826,1.7572510676608695
-0.6574074234991686,0.20222750590553037,0.04875791842469247
-0.6574074234991686,0.20222750590553037,2.7292451544751812
-0.6574074234991686,0.20222750590553037,-0.014624837950386403
-0.6574074234991686,0.20222750590553037,3.853828576570687
-0.6574074234991686,0.20222750590553037,1.04728564231083
-0.6574074234991686,0.20222750590553037,1.7572510676608695
-0.6574074234991686,0.04875791842469247,1.04728564231083
-0.6574074234991686,0.04875791842469247,1.7572510676608695
-0.6574074234991686,0.04875791842469247,2.7292451544751812
-0.6574074234991686,0.04875791842469247,-0.014624837950386403
-0.6574074234991686,0.04875791842469247,3.853828576570687
-0.6574074234991686,2.7292451544751812,1.04728564231083
-0.6574074234991686,2.7292451544751812,1.7572510676608695
-0.6574074234991686,2.7292451544751812,-0.014624837950386403
-0.6574074234991686,2.7292451544751812,3.853828576570687
-0.6574074234991686,-0.014624837950386403,1.04728564231083
-0.6574074234991686,-0.014624837950386403,1.7572510676608695
-0.6574074234991686,-0.014624837950386403,3.853828576570687
-0.6574074234991686,3.853828576570687,1.04728564231083
-0.6574074234991686,3.853828576570687,1.7572510676608695
-0.6574074234991686,1.04728564231083,1.7572510676608695
1.684038517713013,-0.29006162202198826,0.20222750590553037
1.684038517713013,-0.29006162202198826,0.04875791842469247
1.684038517713013,-0.29006162202198826,2.7292451544751812
1.684038517713013,-0.29006162202198826,-0.014624837950386403
1.684038517713013,-0.29006162202198826,3.853828576570687
1.684038517713013,-0.29006162202198826,1.04728564231083
1.684038517713013,-0.29006162202198826,1.7572510676608695
1.684038517713013,0.20222750590553037,0.04875791842469247
1.684038517713013,0.20222750590553037,2.7292451544751812
1.684038517713013,0.20222750590553037,-0.014624837950386403
1.684038517713013,0.20222750590553037,3.853828576570687
1.684038517713013,0.20222750590553037,1.04728564231083
1.684038517713013,0.20222750590553037,1.7572510676608695
1.684038517713013,0.04875791842469247,1.04728564231083
1.684038517713013,0.04875791842469247,1.7572510676608695
1.684038517713013,0.04875791842469247,2.7292451544751812
1.684038517713013,0.04875791842469247,-0.014624837950386403
1.684038517713013,0.04875791842469247,3.853828576570687
1.684038517713013,2.7292451544751812,1.04728564231083
1.684038517713013,2.7292451544751812,1.7572510676608695
1.684038517713013,2.7292451544751812,-0.014624837950386403
1.684038517713013,2.7292451544751812,3.853828576570687
1.684038517713013,-0.014624837950386403,1.04728564231083
1.684038517713013,-0.014624837950386403,1.7572510676608695
1.684038517713013,-0.014624837950386403,3.853828576570687
1.684038517713013,3.853828576570687,1.04728564231083
1.684038517713013,3.853828576570687,1.7572510676608695
1.684038517713013,1.04728564231083,1.7572510676608695
-0.29006162202198826,0.20222750590553037,0.04875791842469247
-0.29006162202198826,0.20222750590553037,2.7292451544751812
-0.29006162202198826,0.20222750590553037,-0.014624837950386403
-0.29006162202198826,0.20222750590553037,3.853828576570687
-0.29006162202198826,0.20222750590553037,1.04728564231083
-0.29006162202198826,0.20222750590553037,1.7572510676608695
-0.29006162202198826,0.04875791842469247,1.04728564231083
-0.29006162202198826,0.04875791842469247,1.7572510676608695
-0.29006162202198826,0.04875791842469247,2.7292451544751812
-0.29006162202198826,0.04875791842469247,-0.014624837950386403
-0.29006162202198826,0.04875791842469247,3.853828576570687
-0.29006162202198826,2.7292451544751812,1.04728564231083
-0.29006162202198826,2.7292451544751812,1.7572510676608695
-0.29006162202198826,2.7292451544751812,-0.014624837950386403
-0.29006162202198826,2.7292451544751812,3.853828576570687
-0.29006162202198826,-0.014624837950386403,1.04728564231083
-0.29006162202198826,-0.014624837950386403,1.7572510676608695
-0.29006162202198826,-0.014624837950386403,3.853828576570687
-0.29006162202198826,3.853828576570687,1.04728564231083
-0.29006162202198826,3.853828576570687,1.7572510676608695
-0.29006162202198826,1.04728564231083,1.7572510676608695
0.20222750590553037,0.04875791842469247,1.04728564231083
0.20222750590553037,0.04875791842469247,1.7572510676608695
0.20222750590553037,0.04875791842469247,2.7292451544751812
0.20222750590553037,0.04875791842469247,-0.014624837950386403
0.20222750590553037,0.04875791842469247,3.853828576570687
0.20222750590553037,2.7292451544751812,1.04728564231083
0.20222750590553037,2.7292451544751812,1.7572510676608695
0.20222750590553037,2.7292451544751812,-0.014624837950386403
0.20222750590553037,2.7292451544751812,3.853828576570687
0.20222750590553037,-0.014624837950386403,1.04728564231083
0.20222750590553037,-0.014624837950386403,1.7572510676608695
0.20222750590553037,-0.014624837950386403,3.853828576570687
0.20222750590553037,3.853828576570687,1.04728564231083
0.20222750590553037,3.853828576570687,1.7572510676608695
0.20222750590553037,1.04728564231083,1.7572510676608695
0.04875791842469247,1.04728564231083,1.7572510676608695
0.04875791842469247,2.7292451544751812,1.04728564231083
0.04875791842469247,2.7292451544751812,1.7572510676608695
0.04875791842469247,2.7292451544751812,-0.014624837950386403
0.04875791842469247,2.7292451544751812,3.853828576570687
0.04875791842469247,-0.014624837950386403,1.04728564231083
0.04875791842469247,-0.014624837950386403,1.7572510676608695
0.04875791842469247,-0.014624837950386403,3.853828576570687
0.04875791842469247,3.853828576570687,1.04728564231083
0.04875791842469247,3.853828576570687,1.7572510676608695
2.7292451544751812,1.04728564231083,1.7572510676608695
2.7292451544751812,-0.014624837950386403,1.04728564231083
2.7292451544751812,-0.014624837950386403,1.7572510676608695
2.7292451544751812,-0.014624837950386403,3.853828576570687
2.7292451544751812,3.853828576570687,1.04728564231083
2.7292451544751812,3.853828576570687,1.7572510676608695
-0.014624837950386403,1.04728564231083,1.7572510676608695
-0.014624837950386403,3.853828576570687,1.04728564231083
-0.014624837950386403,3.853828576570687,1.7572510676608695
3.853828576570687,1.04728564231083,1.7572510676608695
