0,1,2
-3.829967464660491,2.638298074074404,-0.47732102102525376
-3.829967464660491,2.638298074074404,0.017941144079007102
-3.829967464660491,2.638298074074404,1.4483765843376684
-3.829967464660491,2.638298074074404,-1.930107637031793
-3.829967464660491,2.638298074074404,5.4261205437561175
-3.829967464660491,2.638298074074404,-0.8975667339849942
-3.829967464660491,2.638298074074404,1.7528010218647487
-3.829967464660491,2.638298074074404,1.6561577742729332
-3.829967464660491,-0.47732102102525376,0.017941144079007102
-3.829967464660491,-0.47732102102525376,1.4483765843376684
-3.829967464660491,-0.47732102102525376,-1.930107637031793
-3.829967464660491,-0.47732102102525376,5.4261205437561175
-3.829967464660491,-0.47732102102525376,-0.8975667339849942
-3.829967464660491,-0.47732102102525376,1.7528010218647487
-3.829967464660491,-0.47732102102525376,1.6561577742729332
-3.829967464660491,0.017941144079007102,1.4483765843376684
-3.829967464660491,0.017941144079007102,-1.930107637031793
-3.829967464660491,0.017941144079007102,5.4261205437561175
-3.829967464660491,0.017941144079007102,-0.8975667339849942
-3.829967464660491,0.017941144079007102,1.7528010218647487
-3.829967464660491,0.017941144079007102,1.6561577742729332
-3.829967464660491,1.4483765843376684,1.7528010218647487
-3.829967464660491,1.4483765843376684,1.6561577742729332
-3.829967464660491,1.4483765843376684,-1.930107637031793
-3.829967464660491,1.4483765843376684,5.4261205437561175
-3.829967464660491,1.4483765843376684,-0.8975667339849942
-3.829967464660491,-1.930107637031793,1.7528010218647487
-3.829967464660491,-1.930107637031793,1.6561577742729332
-3.829967464660491,-1.930107637031793,5.4261205437561175
-3.829967464660491,-1.930107637031793,-0.8975667339849942
-3.829967464660491,5.4261205437561175,1.7528010218647487
-3.829967464660491,5.4261205437561175,1.6561577742729332
-3.829967464660491,5.4261205437561175,-0.8975667339849942
-3.829967464660491,-0.8975667339849942,1.7528010218647487
-3.829967464660491,-0.8975667339849942,1.6561577742729332
-3.829967464660491,1.7528010218647487,1.6561577742729332
2.638298074074404,-0.47732102102525376,0.017941144079007102
2.638298074074404,-0.47732102102525376,1.4483765843376684
2.638298074074404,-0.47732102102525376,-1.930107637031793
2.638298074074404,-0.47732102102525376,5.4261205437561175
2.638298074074404,-0.47732102102525376,-0.8975667339849942
2.638298074074404,-0.47732102102525376,1.7528010218647487
2.638298074074404,-0.47732102102525376,1.6561577742729332
2.638298074074404,0.017941144079007102,1.4483765843376684
2.638298074074404,0.017941144079007102,-1.930107637031793
2.638298074074404,0.017941144079007102,5.4261205437561175
2.638298074074404,0.017941144079007102,-0.8975667339849942
2.638298074074404,0.017941144079007102,1.7528010218647487
2.638298074074404,0.017941144079007102,1.6561577742729332
2.638298074074404,1.4483765843376684,1.7528010218647487
2.638298074074404,1.4483765843376684,1.6561577742729332
2.638298074074404,1.4483765843376684,-1.930107637031793
2.638298074074404,1.4483765843376684,5.4261205437561175
2.638298074074404,1.4483765843376684,-0.8975667339849942
2.638298074074404,-1.930107637031793,1.7528010218647487
2.638298074074404,-1.930107637031793,1.6561577742729332
2.638298074074404,-1.930107637031793,5.4261205437561175
2.638298074074404,-1.930107637031793,-0.8975667339849942
2.638298074074404,5.4261205437561175,1.7528010218647487
2.638298074074404,5.4261205437561175,1.6561577742729332
2.638298074074404,5.4261205437561175,-0.8975667339849942
2.638298074074404,-0.8975667339849942,1.7528010218647487
2.638298074074404,-0.8975667339849942,1.6561577742729332
2.638298074074404,1.7528010218647487,1.6561577742729332
-0.47732102102525376,0.017941144079007102,1.4483765843376684
-0.47732102102525376,0.017941144079007102,-1.930107637031793
-0.47732102102525376,0.017941144079007102,5.4261205437561175
-0.47732102102525376,0.017941144079007102,-0.8975667339849942
-0.47732102102525376,0.017941144079007102,1.7528010218647487
-0.47732102102525376,0.017941144079007102,1.6561577742729332
-0.47732102102525376,1.4483765843376684,1.7528010218647487
-0.47732102102525376,1.4483765843376684,1.6561577742729332
-0.47732102102525376,1.4483765843376684,-1.930107637031793
-0.47732102102525376,1.4483765843376684,5.4261205437561175
-0.47732102102525376,1.4483765843376684,-0.8975667339849942
-0.47732102102525376,-1.930107637031793,1.7528010218647487
-0.47732102102525376,-1.930107637031793,1.6561577742729332
-0.47732102102525376,-1.930107637031793,5.4261205437561175
-0.47732102102525376,-1.930107637031793,-0.8975667339849942
-0.47732102102525376,5.4261205437561175,1.7528010218647487
-0.47732102102525376,5.4261205437561175,1.6561577742729332
-0.47732102102525376,5.4261205437561175,-0.8975667339849942
-0.47732102102525376,-0.8975667339849942,1.7528010218647487
-0.47732102102525376,-0.8975667339849942,1.6561577742729332
-0.47732102102525376,1.7528010218647487,1.6561577742729332
0.017941144079007102,1.4483765843376684,1.7528010218647487
0.017941144079007102,1.4483765843376684,1.6561577742729332
0.017941144079007102,1.4483765843376684,-1.930107637031793
0.017941144079007102,1.4483765843376684,5.4261205437561175
0.017941144079007102,1.4483765843376684,-0.8975667339849942
0.017941144079007102,-1.930107637031793,1.7528010218647487
0.017941144079007102,-1.930107637031793,1.6561577742729332
0.017941144079007102,-1.930107637031793,5.4261205437561175
0.017941144079007102,-1.930107637031793,-0.8975667339849942
0.017941144079007102,5.4261205437561175,1.7528010218647487
0.017941144079007102,5.4261205437561175,1.6561577742729332
0.017941144079007102,5.4261205437561175,-0.8975667339849942
0.017941144079007102,-0.8975667339849942,1.7528010218647487
0.017941144079007102,-0.8975667339849942,1.6561577742729332
0.017941144079007102,1.7528010218647487,1.6561577742729332
1.4483765843376684,1.7528010218647487,1.6561577742729332
1.4483765843376684,-1.930107637031793,1.7528010218647487
1.4483765843376684,-1.930107637031793,1.6561577742729332
1.4483765843376684,-1.930107637031793,5.4261205437561175
1.4483765843376684,-1.930107637031793,-0.8975667339849942
1.4483765843376684,5.4261205437561175,1.7528010218647487
1.4483765843376684,5.4261205437561175,1.6561577742729332
1.4483765843376684,5.4261205437561175,-0.8975667339849942
1.4483765843376684,-0.8975667339849942,1.7528010218647487
1.4483765843376684,-0.8975667339849942,1.6561577742729332
-1.930107637031793,1.7528010218647487,1.6561577742729332
-1.930107637031793,5.4261205437561175,1.7528010218647487
-1.930107637031793,5.4261205437561175,1.6561577742729332
-1.930107637031793,5.4261205437561175,-0.8975667339849942
-1.930107637031793,-0.8975667339849942,1.7528010218647487
-1.930107637031793,-0.8975667339849942,1.6561577742729332
5.4261205437561175,1.7528010218647487,1.6561577742729332
5.4261205437561175,-0.8975667339849942,1.7528010218647487
5.4261205437561175,-0.8975667339849942,1.6561577742729332
-0.8975667339849942,1.7528010218647487,1.6561577742729332
