0,1,2
0.4973956587525208,-3.884908781438655,-0.946354474757697
0.4973956587525208,-3.884908781438655,-4.368607491918112
0.4973956587525208,-3.884908781438655,0.6429426468631205
0.4973956587525208,-3.884908781438655,0.8812253062671891
0.4973956587525208,-3.884908781438655,2.5426553199317254
0.4973956587525208,-3.884908781438655,0.33458060669568873
0.4973956587525208,-3.884908781438655,-2.884111961205604
0.4973956587525208,-3.884908781438655,-0.06621462970408212
0.4973956587525208,-0.946354474757697,-4.368607491918112
0.4973956587525208,-0.946354474757697,0.6429426468631205
0.4973956587525208,-0.946354474757697,0.8812253062671891
0.4973956587525208,-0.946354474757697,2.5426553199317254
0.4973956587525208,-0.946354474757697,0.33458060669568873
0.4973956587525208,-0.946354474757697,-2.884111961205604
0.4973956587525208,-0.946354474757697,-0.06621462970408212
0.4973956587525208,-4.368607491918112,0.6429426468631205
0.4973956587525208,-4.368607491918112,0.8812253062671891
0.4973956587525208,-4.368607491918112,2.5426553199317254
0.4973956587525208,-4.368607491918112,0.33458060669568873
0.4973956587525208,-4.368607491918112,-2.884111961205604
0.4973956587525208,-4.368607491918112,-0.06621462970408212
0.4973956587525208,0.6429426468631205,-2.884111961205604
0.4973956587525208,0.6429426468631205,-0.06621462970408212
0.4973956587525208,0.6429426468631205,0.8812253062671891
0.4973956587525208,0.6429426468631205,2.5426553199317254
0.4973956587525208,0.6429426468631205,0.33458060669568873
0.4973956587525208,0.8812253062671891,-2.884111961205604
0.4973956587525208,0.8812253062671891,-0.06621462970408212
0.4973956587525208,0.8812253062671891,2.5426553199317254
0.4973956587525208,0.8812253062671891,0.33458060669568873
0.4973956587525208,2.5426553199317254,-2.884111961205604
0.4973956587525208,2.5426553199317254,-0.06621462970408212
0.4973956587525208,2.5426553199317254,0.33458060669568873
0.4973956587525208,0.33458060669568873,-2.884111961205604
0.4973956587525208,0.33458060669568873,-0.06621462970408212
0.4973956587525208,-2.884111961205604,-0.06621462970408212
-3.884908781438655,-0.946354474757697,-4.368607491918112
-3.884908781438655,-0.946354474757697,0.6429426468631205
-3.884908781438655,-0.946354474757697,0.8812253062671891
-3.884908781438655,-0.946354474757697,2.5426553199317254
-3.884908781438655,-0.946354474757697,0.33458060669568873
-3.884908781438655,-0.946354474757697,-2.884111961205604
-3.884908781438655,-0.946354474757697,-0.06621462970408212
-3.884908781438655,-4.368607491918112,0.6429426468631205
-3.884908781438655,-4.368607491918112,0.8812253062671891
-3.884908781438655,-4.368607491918112,2.5426553199317254
-3.884908781438655,-4.368607491918112,0.33458060669568873
-3.884908781438655,-4.368607491918112,-2.884111961205604
-3.884908781438655,-4.368607491918112,-0.06621462970408212
-3.884908781438655,0.6429426468631205,-2.884111961205604
-3.884908781438655,0.6429426468631205,-0.06621462970408212
-3.884908781438655,0.6429426468631205,0.8812253062671891
-3.884908781438655,0.6429426468631205,2.5426553199317254
-3.884908781438655,0.6429426468631205,0.33458060669568873
-3.884908781438655,0.8812253062671891,-2.884111961205604
-3.884908781438655,0.8812253062671891,-0.06621462970408212
-3.884908781438655,0.8812253062671891,2.5426553199317254
-3.884908781438655,0.8812253062671891,0.33458060669568873
-3.884908781438655,2.5426553199317254,-2.884111961205604
-3.884908781438655,2.5426553199317254,-0.06621462970408212
-3.884908781438655,2.5426553199317254,0.33458060669568873
-3.884908781438655,0.33458060669568873,-2.884111961205604
-3.884908781438655,0.33458060669568873,-0.06621462970408212
-3.884908781438655,-2.884111961205604,-0.06621462970408212
-0.946354474757697,-4.368607491918112,0.6429426468631205
-0.946354474757697,-4.368607491918112,0.8812253062671891
-0.946354474757697,-4.368607491918112,2.5426553199317254
-0.946354474757697,-4.368607491918112,0.33458060669568873
-0.946354474757697,-4.368607491918112,-2.884111961205604
-0.946354474757697,-4.368607491918112,-0.06621462970408212
-0.946354474757697,0.6429426468631205,-2.884111961205604
-0.946354474757697,0.6429426468631205,-0.06621462970408212
-0.946354474757697,0.6429426468631205,0.8812253062671891
-0.946354474757697,0.6429426468631205,2.5426553199317254
-0.946354474757697,0.6429426468631205,0.33458060669568873
-0.946354474757697,0.8812253062671891,-2.884111961205604
-0.946354474757697,0.8812253062671891,-0.06621462970408212
-0.946354474757697,0.8812253062671891,2.5426553199317254
-0.946354474757697,0.8812253062671891,0.33458060669568873
-0.946354474757697,2.5426553199317254,-2.884111961205604
-0.946354474757697,2.5426553199317254,-0.06621462970408212
-0.946354474757697,2.5426553199317254,0.33458060669568873
-0.946354474757697,0.33458060669568873,-2.884111961205604
-0.946354474757697,0.33458060669568873,-0.06621462970408212
-0.946354474757697,-2.884111961205604,-0.06621462970408212
-4.368607491918112,0.6429426468631205,-2.884111961205604
-4.368607491918112,0.6429426468631205,-0.06621462970408212
-4.368607491918112,0.6429426468631205,0.8812253062671891
-4.368607491918112,0.6429426468631205,2.5426553199317254
-4.368607491918112,0.6429426468631205,0.33458060669568873
-4.368607491918112,0.8812253062671891,-2.884111961205604
-4.368607491918112,0.8812253062671891,-0.06621462970408212
-4.368607491918112,0.8812253062671891,2.5426553199317254
-4.368607491918112,0.8812253062671891,0.33458060669568873
-4.368607491918112,2.5426553199317254,-2.884111961205604
-4.368607491918112,2.5426553199317254,-0.06621462970408212
-4.368607491918112,2.5426553199317254,0.33458060669568873
-4.368607491918112,0.33458060669568873,-2.884111961205604
-4.368607491918112,0.33458060669568873,-0.06621462970408212
-4.368607491918112,-2.884111961205604,-0.06621462970408212
0.6429426468631205,-2.884111961205604,-0.06621462970408212
0.6429426468631205,0.8812253062671891,-2.884111961205604
0.6429426468631205,0.8812253062671891,-0.06621462970408212
0.6429426468631205,0.8812253062671891,2.5426553199317254
0.6429426468631205,0.8812253062671891,0.33458060669568873
0.6429426468631205,2.5426553199317254,-2.884111961205604
0.6429426468631205,2.5426553199317254,-0.06621462970408212
0.6429426468631205,2.5426553199317254,0.33458060669568873
0.6429426468631205,0.33458060669568873,-2.884111961205604
0.6429426468631205,0.33458060669568873,-0.06621462970408212
0.8812253062671891,-2.884111961205604,-0.06621462970408212
0.8812253062671891,2.5426553199317254,-2.884111961205604
0.8812253062671891,2.5426553199317254,-0.06621462970408212
0.8812253062671891,2.5426553199317254,0.33458060669568873
0.8812253062671891,0.33458060669568873,-2.884111961205604
0.8812253062671891,0.33458060669568873,-0.06621462970408212
2.5426553199317254,-2.884111961205604,-0.06621462970408212
2.5426553199317254,0.33458060669568873,-2.884111961205604
2.5426553199317254,0.33458060669568873,-0.06621462970408212
0.33458060669568873,-2.884111961205604,-0.06621462970408212
