0,1,2
-0.10143106071378113,-0.12172000767351261,0.309671608401363
-0.10143106071378113,-0.12172000767351261,-0.6328173745172625
-0.10143106071378113,-0.12172000767351261,-0.874660349769755
-0.10143106071378113,-0.12172000767351261,0.9376096648345423
-0.10143106071378113,-0.12172000767351261,-0.36684682403998414
-0.10143106071378113,-0.12172000767351261,1.0878685670857684
-0.10143106071378113,-0.12172000767351261,0.29382584621219177
-0.10143106071378113,-0.12172000767351261,-2.7143479183509736
-0.10143106071378113,0.309671608401363,-0.6328173745172625
-0.10143106071378113,0.309671608401363,-0.874660349769755
-0.10143106071378113,0.309671608401363,0.9376096648345423
-0.10143106071378113,0.309671608401363,-0.36684682403998414
-0.10143106071378113,0.309671608401363,1.0878685670857684
-0.10143106071378113,0.309671608401363,0.29382584621219177
-0.10143106071378113,0.309671608401363,-2.7143479183509736
-0.10143106071378113,-0.6328173745172625,-0.874660349769755
-0.10143106071378113,-0.6328173745172625,0.9376096648345423
-0.10143106071378113,-0.6328173745172625,-0.36684682403998414
-0.10143106071378113,-0.6328173745172625,1.0878685670857684
-0.10143106071378113,-0.6328173745172625,0.29382584621219177
-0.10143106071378113,-0.6328173745172625,-2.7143479183509736
-0.10143106071378113,-0.874660349769755,0.29382584621219177
-0.10143106071378113,-0.874660349769755,-2.7143479183509736
-0.10143106071378113,-0.874660349769755,0.9376096648345423
-0.10143106071378113,-0.874660349769755,-0.36684682403998414
-0.10143106071378113,-0.874660349769755,1.0878685670857684
-0.10143106071378113,0.9376096648345423,0.29382584621219177
-0.10143106071378113,0.9376096648345423,-2.7143479183509736
-0.10143106071378113,0.9376096648345423,-0.36684682403998414
-0.10143106071378113,0.9376096648345423,1.0878685670857684
-0.10143106071378113,-0.36684682403998414,0.29382584621219177
-0.10143106071378113,-0.36684682403998414,-2.7143479183509736
-0.10143106071378113,-0.36684682403998414,1.0878685670857684
-0.10143106071378113,1.0878685670857684,0.29382584621219177
-0.10143106071378113,1.0878685670857684,-2.7143479183509736
-0.10143106071378113,0.29382584621219177,-2.7143479183509736
-0.12172000767351261,0.309671608401363,-0.6328173745172625
-0.12172000767351261,0.309671608401363,-0.874660349769755
-0.12172000767351261,0.309671608401363,0.9376096648345423
-0.12172000767351261,0.309671608401363,-0.36684682403998414
-0.12172000767351261,0.309671608401363,1.0878685670857684
-0.12172000767351261,0.309671608401363,0.29382584621219177
-0.12172000767351261,0.309671608401363,-2.7143479183509736
-0.12172000767351261,-0.6328173745172625,-0.874660349769755
-0.12172000767351261,-0.6328173745172625,0.9376096648345423
-0.12172000767351261,-0.6328173745172625,-0.36684682403998414
-0.12172000767351261,-0.6328173745172625,1.0878685670857684
-0.12172000767351261,-0.6328173745172625,0.29382584621219177
-0.12172000767351261,-0.6328173745172625,-2.7143479183509736
-0.12172000767351261,-0.874660349769755,0.29382584621219177
-0.12172000767351261,-0.874660349769755,-2.7143479183509736
-0.12172000767351261,-0.874660349769755,0.9376096648345423
-0.12172000767351261,-0.874660349769755,-0.36684682403998414
-0.12172000767351261,-0.874660349769755,1.0878685670857684
-0.12172000767351261,0.9376096648345423,0.29382584621219177
-0.12172000767351261,0.9376096648345423,-2.7143479183509736
-0.12172000767351261,0.9376096648345423,-0.36684682403998414
-0.12172000767351261,0.9376096648345423,1.0878685670857684
-0.12172000767351261,-0.36684682403998414,0.29382584621219177
-0.12172000767351261,-0.36684682403998414,-2.7143479183509736
-0.12172000767351261,-0.36684682403998414,1.0878685670857684
-0.12172000767351261,1.0878685670857684,0.29382584621219177
-0.12172000767351261,1.0878685670857684,-2.7143479183509736
-0.12172000767351261,0.29382584621219177,-2.7143479183509736
0.309671608401363,-0.6328173745172625,-0.874660349769755
0.309671608401363,-0.6328173745172625,0.9376096648345423
0.309671608401363,-0.6328173745172625,-0.36684682403998414
0.309671608401363,-0.6328173745172625,1.0878685670857684
0.309671608401363,-0.6328173745172625,0.29382584621219177
0.309671608401363,-0.6328173745172625,-2.7143479183509736
0.309671608401363,-0.874660349769755,0.29382584621219177
0.309671608401363,-0.874660349769755,-2.7143479183509736
0.309671608401363,-0.874660349769755,0.9376096648345423
0.309671608401363,-0.874660349769755,-0.36684682403998414
0.309671608401363,-0.874660349769755,1.0878685670857684
0.309671608401363,0.9376096648345423,0.29382584621219177
0.309671608401363,0.9376096648345423,-2.7143479183509736
0.309671608401363,0.9376096648345423,-0.36684682403998414
0.309671608401363,0.9376096648345423,1.0878685670857684
0.309671608401363,-0.36684682403998414,0.29382584621219177
0.309671608401363,-0.36684682403998414,-2.7143479183509736
0.309671608401363,-0.36684682403998414,1.0878685670857684
0.309671608401363,1.0878685670857684,0.29382584621219177
0.309671608401363,1.0878685670857684,-2.7143479183509736
0.309671608401363,0.29382584621219177,-2.7143479183509736
-0.6328173745172625,-0.874660349769755,0.29382584621219177
-0.6328173745172625,-0.874660349769755,-2.7143479183509736
-0.6328173745172625,-0.874660349769755,0.9376096648345423
-0.6328173745172625,-0.874660349769755,-0.36684682403998414
-0.6328173745172625,-0.874660349769755,1.0878685670857684
-0.6328173745172625,0.9376096648345423,0.29382584621219177
-0.6328173745172625,0.9376096648345423,-2.7143479183509736
-0.6328173745172625,0.9376096648345423,-0.36684682403998414
-0.6328173745172625,0.9376096648345423,1.0878685670857684
-0.6328173745172625,-0.36684682403998414,0.29382584621219177
-0.6328173745172625,-0.36684682403998414,-2.7143479183509736
-0.6328173745172625,-0.36684682403998414,1.0878685670857684
-0.6328173745172625,1.0878685670857684,0.29382584621219177
-0.6328173745172625,1.0878685670857684,-2.7143479183509736
-0.6328173745172625,0.29382584621219177,-2.7143479183509736
-0.874660349769755,0.29382584621219177,-2.7143479183509736
-0.874660349769755,0.9376096648345423,0.29382584621219177
-0.874660349769755,0.9376096648345423,-2.7143479183509736
-0.874660349769755,0.9376096648345423,-0.36684682403998414
-0.874660349769755,0.9376096648345423,1.0878685670857684
-0.874660349769755,-0.36684682403998414,0.29382584621219177
-0.874660349769755,-0.36684682403998414,-2.7143479183509736
-0.874660349769755,-0.36684682403998414,1.0878685670857684
-0.874660349769755,1.0878685670857684,0.29382584621219177
-0.874660349769755,1.0878685670857684,-2.7143479183509736
0.9376096648345423,0.29382584621219177,-2.7143479183509736
0.9376096648345423,-0.36684682403998414,0.29382584621219177
0.9376096648345423,-0.36684682403998414,-2.7143479183509736
0.9376096648345423,-0.36684682403998414,1.0878685670857684
0.9376096648345423,1.0878685670857684,0.29382584621219177
0.9376096648345423,1.0878685670857684,-2.7143479183509736
-0.36684682403998414,0.29382584621219177,-2.7143479183509736
-0.36684682403998414,1.0878685670857684,0.29382584621219177
-0.36684682403998414,1.0878685670857684,-2.7143479183509736
1.0878685670857684,0.29382584621219177,-2.7143479183509736
