0,1,2
-2.8463291209840382,-3.038395990045879,-2.809839906144854
-2.8463291209840382,-3.038395990045879,1.3895712877290367
-2.8463291209840382,-3.038395990045879,1.1465017700186797
-2.8463291209840382,-3.038395990045879,-1.756871625551986
-2.8463291209840382,-3.038395990045879,-0.46597721786738894
-2.8463291209840382,-3.038395990045879,-0.8820389745198662
-2.8463291209840382,-3.038395990045879,1.3604672075204682
-2.8463291209840382,-3.038395990045879,-2.7255433786241334
-2.8463291209840382,-2.809839906144854,1.3895712877290367
-2.8463291209840382,-2.809839906144854,1.1465017700186797
-2.8463291209840382,-2.809839906144854,-1.756871625551986
-2.8463291209840382,-2.809839906144854,-0.46597721786738894
-2.8463291209840382,-2.809839906144854,-0.8820389745198662
-2.8463291209840382,-2.809839906144854,1.3604672075204682
-2.8463291209840382,-2.809839906144854,-2.7255433786241334
-2.8463291209840382,1.3895712877290367,1.1465017700186797
-2.8463291209840382,1.3895712877290367,-1.756871625551986
-2.8463291209840382,1.3895712877290367,-0.46597721786738894
-2.8463291209840382,1.3895712877290367,-0.8820389745198662
-2.8463291209840382,1.3895712877290367,1.3604672075204682
-2.8463291209840382,1.3895712877290367,-2.7255433786241334
-2.8463291209840382,1.1465017700186797,1.3604672075204682
-2.8463291209840382,1.1465017700186797,-2.7255433786241334
-2.8463291209840382,1.1465017700186797,-1.756871625551986
-2.8463291209840382,1.1465017700186797,-0.46597721786738894
-2.8463291209840382,1.1465017700186797,-0.8820389745198662
-2.8463291209840382,-1.756871625551986,1.3604672075204682
-2.8463291209840382,-1.756871625551986,-2.7255433786241334
-2.8463291209840382,-1.756871625551986,-0.46597721786738894
-2.8463291209840382,-1.756871625551986,-0.8820389745198662
-2.8463291209840382,-0.46597721786738894,1.3604672075204682
-2.8463291209840382,-0.46597721786738894,-2.7255433786241334
-2.8463291209840382,-0.46597721786738894,-0.8820389745198662
-2.8463291209840382,-0.8820389745198662,1.3604672075204682
-2.8463291209840382,-0.8820389745198662,-2.7255433786241334
-2.8463291209840382,1.3604672075204682,-2.7255433786241334
-3.038395990045879,-2.809839906144854,1.3895712877290367
-3.038395990045879,-2.809839906144854,1.1465017700186797
-3.038395990045879,-2.809839906144854,-1.756871625551986
-3.038395990045879,-2.809839906144854,-0.46597721786738894
-3.038395990045879,-2.809839906144854,-0.8820389745198662
-3.038395990045879,-2.809839906144854,1.3604672075204682
-3.038395990045879,-2.809839906144854,-2.7255433786241334
-3.038395990045879,1.3895712877290367,1.1465017700186797
-3.038395990045879,1.3895712877290367,-1.756871625551986
-3.038395990045879,1.3895712877290367,-0.46597721786738894
-3.038395990045879,1.3895712877290367,-0.8820389745198662
-3.038395990045879,1.3895712877290367,1.3604672075204682
-3.038395990045879,1.3895712877290367,-2.7255433786241334
-3.038395990045879,1.1465017700186797,1.3604672075204682
-3.038395990045879,1.1465017700186797,-2.7255433786241334
-3.038395990045879,1.1465017700186797,-1.756871625551986
-3.038395990045879,1.1465017700186797,-0.46597721786738894
-3.038395990045879,1.1465017700186797,-0.8820389745198662
-3.038395990045879,-1.756871625551986,1.3604672075204682
-3.038395990045879,-1.756871625551986,-2.7255433786241334
-3.038395990045879,-1.756871625551986,-0.46597721786738894
-3.038395990045879,-1.756871625551986,-0.8820389745198662
-3.038395990045879,-0.46597721786738894,1.3604672075204682
-3.038395990045879,-0.46597721786738894,-2.7255433786241334
-3.038395990045879,-0.46597721786738894,-0.8820389745198662
-3.038395990045879,-0.8820389745198662,1.3604672075204682
-3.038395990045879,-0.8820389745198662,-2.7255433786241334
-3.038395990045879,1.3604672075204682,-2.7255433786241334
-2.809839906144854,1.3895712877290367,1.1465017700186797
-2.809839906144854,1.3895712877290367,-1.756871625551986
-2.809839906144854,1.3895712877290367,-0.46597721786738894
-2.809839906144854,1.3895712877290367,-0.8820389745198662
-2.809839906144854,1.3895712877290367,1.3604672075204682
-2.809839906144854,1.3895712877290367,-2.7255433786241334
-2.809839906144854,1.1465017700186797,1.3604672075204682
-2.809839906144854,1.1465017700186797,-2.7255433786241334
-2.809839906144854,1.1465017700186797,-1.756871625551986
-2.809839906144854,1.1465017700186797,-0.46597721786738894
-2.809839906144854,1.1465017700186797,-0.8820389745198662
-2.809839906144854,-1.756871625551986,1.3604672075204682
-2.809839906144854,-1.756871625551986,-2.7255433786241334
-2.809839906144854,-1.756871625551986,-0.46597721786738894
-2.809839906144854,-1.756871625551986,-0.8820389745198662
-2.809839906144854,-0.46597721786738894,1.3604672075204682
-2.809839906144854,-0.46597721786738894,-2.7255433786241334
-2.809839906144854,-0.46597721786738894,-0.8820389745198662
-2.809839906144854,-0.8820389745198662,1.3604672075204682
-2.809839906144854,-0.8820389745198662,-2.7255433786241334
-2.809839906144854,1.3604672075204682,-2.7255433786241334
1.3895712877290367,1.1465017700186797,1.3604672075204682
1.3895712877290367,1.1465017700186797,-2.7255433786241334
1.3895712877290367,1.1465017700186797,-1.756871625551986
1.3895712877290367,1.1465017700186797,-0.46597721786738894
1.3895712877290367,1.1465017700186797,-0.8820389745198662
1.3895712877290367,-1.756871625551986,1.3604672075204682
1.3895712877290367,-1.756871625551986,-2.7255433786241334
1.3895712877290367,-1.756871625551986,-0.46597721786738894
1.3895712877290367,-1.756871625551986,-0.8820389745198662
1.3895712877290367,-0.46597721786738894,1.3604672075204682
1.3895712877290367,-0.46597721786738894,-2.7255433786241334
1.3895712877290367,-0.46597721786738894,-0.8820389745198662
1.3895712877290367,-0.8820389745198662,1.3604672075204682
1.3895712877290367,-0.8820389745198662,-2.7255433786241334
1.3895712877290367,1.3604672075204682,-2.7255433786241334
1.1465017700186797,1.3604672075204682,-2.7255433786241334
1.1465017700186797,-1.756871625551986,1.3604672075204682
1.1465017700186797,-1.756871625551986,-2.7255433786241334
1.1465017700186797,-1.756871625551986,-0.46597721786738894
1.1465017700186797,-1.756871625551986,-0.8820389745198662
1.1465017700186797,-0.46597721786738894,1.3604672075204682
1.1465017700186797,-0.46597721786738894,-2.7255433786241334
1.1465017700186797,-0.46597721786738894,-0.8820389745198662
1.1465017700186797,-0.8820389745198662,1.3604672075204682
1.1465017700186797,-0.8820389745198662,-2.7255433786241334
-1.756871625551986,1.3604672075204682,-2.7255433786241334
-1.756871625551986,-0.46597721786738894,1.3604672075204682
-1.756871625551986,-0.46597721786738894,-2.7255433786241334
-1.756871625551986,-0.46597721786738894,-0.8820389745198662
-1.756871625551986,-0.8820389745198662,1.3604672075204682
-1.756871625551986,-0.8820389745198662,-2.7255433786241334
-0.46597721786738894,1.3604672075204682,-2.7255433786241334
-0.46597721786738894,-0.8820389745198662,1.3604672075204682
-0.46597721786738894,-0.8820389745198662,-2.7255433786241334
-0.8820389745198662,1.3604672075204682,-2.7255433786241334
