0,1,2
2.2940745802219658,-2.9786156990690773,-0.7138303510751506
2.2940745802219658,-2.9786156990690773,-1.457596794951667
2.2940745802219658,-2.9786156990690773,-1.568296369668604
2.2940745802219658,-2.9786156990690773,1.0527205246135602
2.2940745802219658,-2.9786156990690773,-2.467251970055755
2.2940745802219658,-2.9786156990690773,1.986602569563503
2.2940745802219658,-2.9786156990690773,-1.2084504040475554
2.2940745802219658,-2.9786156990690773,0.2623240217909713
2.2940745802219658,-0.7138303510751506,-1.457596794951667
2.2940745802219658,-0.7138303510751506,-1.568296369668604
2.2940745802219658,-0.7138303510751506,1.0527205246135602
2.2940745802219658,-0.7138303510751506,-2.467251970055755
2.2940745802219658,-0.7138303510751506,1.986602569563503
2.2940745802219658,-0.7138303510751506,-1.2084504040475554
2.2940745802219658,-0.7138303510751506,0.2623240217909713
2.2940745802219658,-1.457596794951667,-1.568296369668604
2.2940745802219658,-1.457596794951667,1.0527205246135602
2.2940745802219658,-1.457596794951667,-2.467251970055755
2.2940745802219658,-1.457596794951667,1.986602569563503
2.2940745802219658,-1.457596794951667,-1.2084504040475554
2.2940745802219658,-1.457596794951667,0.2623240217909713
2.2940745802219658,-1.568296369668604,-1.2084504040475554
2.2940745802219658,-1.568296369668604,0.2623240217909713
2.2940745802219658,-1.568296369668604,1.0527205246135602
2.2940745802219658,-1.568296369668604,-2.467251970055755
2.2940745802219658,-1.568296369668604,1.986602569563503
2.2940745802219658,1.0527205246135602,-1.2084504040475554
2.2940745802219658,1.0527205246135602,0.2623240217909713
2.2940745802219658,1.0527205246135602,-2.467251970055755
2.2940745802219658,1.0527205246135602,1.986602569563503
2.2940745802219658,-2.467251970055755,-1.2084504040475554
2.2940745802219658,-2.467251970055755,0.2623240217909713
2.2940745802219658,-2.467251970055755,1.986602569563503
2.2940745802219658,1.986602569563503,-1.2084504040475554
2.2940745802219658,1.986602569563503,0.2623240217909713
2.2940745802219658,-1.2084504040475554,0.2623240217909713
-2.9786156990690773,-0.7138303510751506,-1.457596794951667
-2.9786156990690773,-0.7138303510751506,-1.568296369668604
-2.9786156990690773,-0.7138303510751506,1.0527205246135602
-2.9786156990690773,-0.7138303510751506,-2.467251970055755
-2.9786156990690773,-0.7138303510751506,1.986602569563503
-2.9786156990690773,-0.7138303510751506,-1.2084504040475554
-2.9786156990690773,-0.7138303510751506,0.2623240217909713
-2.9786156990690773,-1.457596794951667,-1.568296369668604
-2.9786156990690773,-1.457596794951667,1.0527205246135602
-2.9786156990690773,-1.457596794951667,-2.467251970055755
-2.9786156990690773,-1.457596794951667,1.986602569563503
-2.9786156990690773,-1.457596794951667,-1.2084504040475554
-2.9786156990690773,-1.457596794951667,0.2623240217909713
-2.9786156990690773,-1.568296369668604,-1.2084504040475554
-2.9786156990690773,-1.568296369668604,0.2623240217909713
-2.9786156990690773,-1.568296369668604,1.0527205246135602
-2.9786156990690773,-1.568296369668604,-2.467251970055755
-2.9786156990690773,-1.568296369668604,1.986602569563503
-2.9786156990690773,1.0527205246135602,-1.2084504040475554
-2.9786156990690773,1.0527205246135602,0.2623240217909713
-2.9786156990690773,1.0527205246135602,-2.467251970055755
-2.9786156990690773,1.0527205246135602,1.986602569563503
-2.9786156990690773,-2.467251970055755,-1.2084504040475554
-2.9786156990690773,-2.467251970055755,0.2623240217909713
-2.9786156990690773,-2.467251970055755,1.986602569563503
-2.9786156990690773,1.986602569563503,-1.2084504040475554
-2.9786156990690773,1.986602569563503,0.2623240217909713
-2.9786156990690773,-1.2084504040475554,0.2623240217909713
-0.7138303510751506,-1.457596794951667,-1.568296369668604
-0.7138303510751506,-1.457596794951667,1.0527205246135602
-0.7138303510751506,-1.457596794951667,-2.467251970055755
-0.7138303510751506,-1.457596794951667,1.986602569563503
-0.7138303510751506,-1.457596794951667,-1.2084504040475554
-0.7138303510751506,-1.457596794951667,0.2623240217909713
-0.7138303510751506,-1.568296369668604,-1.2084504040475554
-0.7138303510751506,-1.568296369668604,0.2623240217909713
-0.7138303510751506,-1.568296369668604,1.0527205246135602
-0.7138303510751506,-1.568296369668604,-2.467251970055755
-0.7138303510751506,-1.568296369668604,1.986602569563503
-0.7138303510751506,1.0527205246135602,-1.2084504040475554
-0.7138303510751506,1.0527205246135602,0.2623240217909713
-0.7138303510751506,1.0527205246135602,-2.467251970055755
-0.7138303510751506,1.0527205246135602,1.986602569563503
-0.7138303510751506,-2.467251970055755,-1.2084504040475554
-0.7138303510751506,-2.467251970055755,0.2623240217909713
-0.7138303510751506,-2.467251970055755,1.986602569563503
-0.7138303510751506,1.986602569563503,-1.2084504040475554
-0.7138303510751506,1.986602569563503,0.2623240217909713
-0.7138303510751506,-1.2084504040475554,0.2623240217909713
-1.457596794951667,-1.568296369668604,-1.2084504040475554
-1.457596794951667,-1.568296369668604,0.2623240217909713
-1.457596794951667,-1.568296369668604,1.0527205246135602
-1.457596794951667,-1.568296369668604,-2.467251970055755
-1.457596794951667,-1.568296369668604,1.986602569563503
-1.457596794951667,1.0527205246135602,-1.2084504040475554
-1.457596794951667,1.0527205246135602,0.2623240217909713
-1.457596794951667,1.0527205246135602,-2.467251970055755
-1.457596794951667,1.0527205246135602,1.986602569563503
-1.457596794951667,-2.467251970055755,-1.2084504040475554
-1.457596794951667,-2.467251970055755,0.2623240217909713
-1.457596794951667,-2.467251970055755,1.986602569563503
-1.457596794951667,1.986602569563503,-1.2084504040475554
-1.457596794951667,1.986602569563503,0.2623240217909713
-1.457596794951667,-1.2084504040475554,0.2623240217909713
-1.568296369668604,-1.2084504040475554,0.2623240217909713
-1.568296369668604,1.0527205246135602,-1.2084504040475554
-1.568296369668604,1.0527205246135602,0.2623240217909713
-1.568296369668604,1.0527205246135602,-2.467251970055755
-1.568296369668604,1.0527205246135602,1.986602569563503
-1.568296369668604,-2.467251970055755,-1.2084504040475554
-1.568296369668604,-2.467251970055755,0.2623240217909713
-1.568296369668604,-2.467251970055755,1.986602569563503
-1.568296369668604,1.986602569563503,-1.2084504040475554
-1.568296369668604,1.986602569563503,0.2623240217909713
1.0527205246135602,-1.2084504040475554,0.2623240217909713
1.0527205246135602,-2.467251970055755,-1.2084504040475554
1.0527205246135602,-2.467251970055755,0.2623240217909713
1.0527205246135602,-2.467251970055755,1.986602569563503
1.0527205246135602,1.986602569563503,-1.2084504040475554
1.0527205246135602,1.986602569563503,0.2623240217909713
-2.467251970055755,-1.2084504040475554,0.2623240217909713
-2.467251970055755,1.986602569563503,-1.2084504040475554
-2.467251970055755,1.986602569563503,0.2623240217909713
1.986602569563503,-1.2084504040475554,0.2623240217909713
