0,1,2
3.3313985661196193,-3.2071427214056,1.0386419330595047
3.3313985661196193,-3.2071427214056,3.0846770731578763
3.3313985661196193,-3.2071427214056,-0.09851871317955596
3.3313985661196193,-3.2071427214056,-1.9567075749528375
3.3313985661196193,-3.2071427214056,2.422817973762129
3.3313985661196193,-3.2071427214056,0.16432713289547193
3.3313985661196193,-3.2071427214056,0.2739687922759605
3.3313985661196193,-3.2071427214056,2.836461417191841
3.3313985661196193,1.0386419330595047,3.0846770731578763
3.3313985661196193,1.0386419330595047,-0.09851871317955596
3.3313985661196193,1.0386419330595047,-1.9567075749528375
3.3313985661196193,1.0386419330595047,2.422817973762129
3.3313985661196193,1.0386419330595047,0.16432713289547193
3.3313985661196193,1.0386419330595047,0.2739687922759605
3.3313985661196193,1.0386419330595047,2.836461417191841
3.3313985661196193,3.0846770731578763,-0.09851871317955596
3.3313985661196193,3.0846770731578763,-1.9567075749528375
3.3313985661196193,3.0846770731578763,2.422817973762129
3.3313985661196193,3.0846770731578763,0.16432713289547193
3.3313985661196193,3.0846770731578763,0.2739687922759605
3.3313985661196193,3.0846770731578763,2.836461417191841
3.3313985661196193,-0.09851871317955596,0.2739687922759605
3.3313985661196193,-0.09851871317955596,2.836461417191841
3.3313985661196193,-0.09851871317955596,-1.9567075749528375
3.3313985661196193,-0.09851871317955596,2.422817973762129
3.3313985661196193,-0.09851871317955596,0.16432713289547193
3.3313985661196193,-1.9567075749528375,0.2739687922759605
3.3313985661196193,-1.9567075749528375,2.836461417191841
3.3313985661196193,-1.9567075749528375,2.422817973762129
3.3313985661196193,-1.9567075749528375,0.16432713289547193
3.3313985661196193,2.422817973762129,0.2739687922759605
3.3313985661196193,2.422817973762129,2.836461417191841
3.3313985661196193,2.422817973762129,0.16432713289547193
3.3313985661196193,0.16432713289547193,0.2739687922759605
3.3313985661196193,0.16432713289547193,2.836461417191841
3.3313985661196193,0.2739687922759605,2.836461417191841
-3.2071427214056,1.0386419330595047,3.0846770731578763
-3.2071427214056,1.0386419330595047,-0.09851871317955596
-3.2071427214056,1.0386419330595047,-1.9567075749528375
-3.2071427214056,1.0386419330595047,2.422817973762129
-3.2071427214056,1.0386419330595047,0.16432713289547193
-3.2071427214056,1.0386419330595047,0.2739687922759605
-3.2071427214056,1.0386419330595047,2.836461417191841
-3.2071427214056,3.0846770731578763,-0.09851871317955596
-3.2071427214056,3.0846770731578763,-1.9567075749528375
-3.2071427214056,3.0846770731578763,2.422817973762129
-3.2071427214056,3.0846770731578763,0.16432713289547193
-3.2071427214056,3.0846770731578763,0.2739687922759605
-3.2071427214056,3.0846770731578763,2.836461417191841
-3.2071427214056,-0.09851871317955596,0.2739687922759605
-3.2071427214056,-0.09851871317955596,2.836461417191841
-3.2071427214056,-0.09851871317955596,-1.9567075749528375
-3.2071427214056,-0.09851871317955596,2.422817973762129
-3.2071427214056,-0.09851871317955596,0.16432713289547193
-3.2071427214056,-1.9567075749528375,0.2739687922759605
-3.2071427214056,-1.9567075749528375,2.836461417191841
-3.2071427214056,-1.9567075749528375,2.422817973762129
-3.2071427214056,-1.9567075749528375,0.16432713289547193
-3.2071427214056,2.422817973762129,0.2739687922759605
-3.2071427214056,2.422817973762129,2.836461417191841
-3.2071427214056,2.422817973762129,0.16432713289547193
-3.2071427214056,0.16432713289547193,0.2739687922759605
-3.2071427214056,0.16432713289547193,2.836461417191841
-3.2071427214056,0.2739687922759605,2.836461417191841
1.0386419330595047,3.0846770731578763,-0.09851871317955596
1.0386419330595047,3.0846770731578763,-1.9567075749528375
1.0386419330595047,3.0846770731578763,2.422817973762129
1.0386419330595047,3.0846770731578763,0.16432713289547193
1.0386419330595047,3.0846770731578763,0.2739687922759605
1.0386419330595047,3.0846770731578763,2.836461417191841
1.0386419330595047,-0.09851871317955596,0.2739687922759605
1.0386419330595047,-0.09851871317955596,2.836461417191841
1.0386419330595047,-0.09851871317955596,-1.9567075749528375
1.0386419330595047,-0.09851871317955596,2.422817973762129
1.0386419330595047,-0.09851871317955596,0.16432713289547193
1.0386419330595047,-1.9567075749528375,0.2739687922759605
1.0386419330595047,-1.9567075749528375,2.836461417191841
1.0386419330595047,-1.9567075749528375,2.422817973762129
1.0386419330595047,-1.9567075749528375,0.16432713289547193
1.0386419330595047,2.422817973762129,0.2739687922759605
1.0386419330595047,2.422817973762129,2.836461417191841
1.0386419330595047,2.422817973762129,0.16432713289547193
1.0386419330595047,0.16432713289547193,0.2739687922759605
1.0386419330595047,0.16432713289547193,2.836461417191841
1.0386419330595047,0.2739687922759605,2.836461417191841
3.0846770731578763,-0.09851871317955596,0.2739687922759605
3.0846770731578763,-0.09851871317955596,2.836461417191841
3.0846770731578763,-0.09851871317955596,-1.9567075749528375
3.0846770731578763,-0.09851871317955596,2.422817973762129
3.0846770731578763,-0.09851871317955596,0.16432713289547193
3.0846770731578763,-1.9567075749528375,0.2739687922759605
3.0846770731578763,-1.9567075749528375,2.836461417191841
3.0846770731578763,-1.9567075749528375,2.422817973762129
3.0846770731578763,-1.9567075749528375,0.16432713289547193
3.0846770731578763,2.422817973762129,0.2739687922759605
3.0846770731578763,2.422817973762129,2.836461417191841
3.0846770731578763,2.422817973762129,0.16432713289547193
3.0846770731578763,0.16432713289547193,0.2739687922759605
3.0846770731578763,0.16432713289547193,2.836461417191841
3.0846770731578763,0.2739687922759605,2.836461417191841
-0.09851871317955596,0.2739687922759605,2.836461417191841
-0.09851871317955596,-1.9567075749528375,0.2739687922759605
-0.09851871317955596,-1.9567075749528375,2.836461417191841
-0.09851871317955596,-1.9567075749528375,2.422817973762129
-0.09851871317955596,-1.9567075749528375,0.16432713289547193
-0.09851871317955596,2.422817973762129,0.2739687922759605
-0.09851871317955596,2.422817973762129,2.836461417191841
-0.09851871317955596,2.422817973762129,0.16432713289547193
-0.09851871317955596,0.16432713289547193,0.2739687922759605
-0.09851871317955596,0.16432713289547193,2.836461417191841
-1.9567075749528375,0.2739687922759605,2.836461417191841
-1.9567075749528375,2.422817973762129,0.2739687922759605
-1.9567075749528375,2.422817973762129,2.836461417191841
-1.9567075749528375,2.422817973762129,0.16432713289547193
-1.9567075749528375,0.16432713289547193,0.2739687922759605
-1.9567075749528375,0.16432713289547193,2.836461417191841
2.422817973762129,0.2739687922759605,2.836461417191841
2.422817973762129,0.16432713289547193,0.2739687922759605
2.422817973762129,0.16432713289547193,2.836461417191841
0.16432713289547193,0.2739687922759605,2.836461417191841
