0,1,2
0.8269501089777564,0.8862518233186585,3.748221832993864
0.8269501089777564,0.8862518233186585,2.99197803011165
0.8269501089777564,0.8862518233186585,2.446780778615429
0.8269501089777564,0.8862518233186585,-0.7179601192615749
0.8269501089777564,0.8862518233186585,3.046093630870666
0.8269501089777564,0.8862518233186585,0.5955838713335759
0.8269501089777564,0.8862518233186585,1.14493078908349
0.8269501089777564,0.8862518233186585,-0.28900119210348413
0.8269501089777564,3.748221832993864,2.99197803011165
0.8269501089777564,3.748221832993864,2.446780778615429
0.8269501089777564,3.748221832993864,-0.7179601192615749
0.8269501089777564,3.748221832993864,3.046093630870666
0.8269501089777564,3.748221832993864,0.5955838713335759
0.8269501089777564,3.748221832993864,1.14493078908349
0.8269501089777564,3.748221832993864,-0.28900119210348413
0.8269501089777564,2.99197803011165,2.446780778615429
0.8269501089777564,2.99197803011165,-0.7179601192615749
0.8269501089777564,2.99197803011165,3.046093630870666
0.8269501089777564,2.99197803011165,0.5955838713335759
0.8269501089777564,2.99197803011165,1.14493078908349
0.8269501089777564,2.99197803011165,-0.28900119210348413
0.8269501089777564,2.446780778615429,1.14493078908349
0.8269501089777564,2.446780778615429,-0.28900119210348413
0.8269501089777564,2.446780778615429,-0.7179601192615749
0.8269501089777564,2.446780778615429,3.046093630870666
0.8269501089777564,2.446780778615429,0.5955838713335759
0.8269501089777564,-0.7179601192615749,1.14493078908349
0.8269501089777564,-0.7179601192615749,-0.28900119210348413
0.8269501089777564,-0.7179601192615749,3.046093630870666
0.8269501089777564,-0.7179601192615749,0.5955838713335759
0.8269501089777564,3.046093630870666,1.14493078908349
0.8269501089777564,3.046093630870666,-0.28900119210348413
0.8269501089777564,3.046093630870666,0.5955838713335759
0.8269501089777564,0.5955838713335759,1.14493078908349
0.8269501089777564,0.5955838713335759,-0.28900119210348413
0.8269501089777564,1.14493078908349,-0.28900119210348413
0.8862518233186585,3.748221832993864,2.99197803011165
0.8862518233186585,3.748221832993864,2.446780778615429
0.8862518233186585,3.748221832993864,-0.7179601192615749
0.8862518233186585,3.748221832993864,3.046093630870666
0.8862518233186585,3.748221832993864,0.5955838713335759
0.8862518233186585,3.748221832993864,1.14493078908349
0.8862518233186585,3.748221832993864,-0.28900119210348413
0.8862518233186585,2.99197803011165,2.446780778615429
0.8862518233186585,2.99197803011165,-0.7179601192615749
0.8862518233186585,2.99197803011165,3.046093630870666
0.8862518233186585,2.99197803011165,0.5955838713335759
0.8862518233186585,2.99197803011165,1.14493078908349
0.8862518233186585,2.99197803011165,-0.28900119210348413
0.8862518233186585,2.446780778615429,1.14493078908349
0.8862518233186585,2.446780778615429,-0.28900119210348413
0.8862518233186585,2.446780778615429,-0.7179601192615749
0.8862518233186585,2.446780778615429,3.046093630870666
0.8862518233186585,2.446780778615429,0.5955838713335759
0.8862518233186585,-0.7179601192615749,1.14493078908349
0.8862518233186585,-0.7179601192615749,-0.28900119210348413
0.8862518233186585,-0.7179601192615749,3.046093630870666
0.8862518233186585,-0.7179601192615749,0.5955838713335759
0.8862518233186585,3.046093630870666,1.14493078908349
0.8862518233186585,3.046093630870666,-0.28900119210348413
0.8862518233186585,3.046093630870666,0.5955838713335759
0.8862518233186585,0.5955838713335759,1.14493078908349
0.8862518233186585,0.5955838713335759,-0.28900119210348413
0.8862518233186585,1.14493078908349,-0.28900119210348413
3.748221832993864,2.99197803011165,2.446780778615429
3.748221832993864,2.99197803011165,-0.7179601192615749
3.748221832993864,2.99197803011165,3.046093630870666
3.748221832993864,2.99197803011165,0.5955838713335759
3.748221832993864,2.99197803011165,1.14493078908349
3.748221832993864,2.99197803011165,-0.28900119210348413
3.748221832993864,2.446780778615429,1.14493078908349
3.748221832993864,2.446780778615429,-0.28900119210348413
3.748221832993864,2.446780778615429,-0.7179601192615749
3.748221832993864,2.446780778615429,3.046093630870666
3.748221832993864,2.446780778615429,0.5955838713335759
3.748221832993864,-0.7179601192615749,1.14493078908349
3.748221832993864,-0.7179601192615749,-0.28900119210348413
3.748221832993864,-0.7179601192615749,3.046093630870666
3.748221832993864,-0.7179601192615749,0.5955838713335759
3.748221832993864,3.046093630870666,1.14493078908349
3.748221832993864,3.046093630870666,-0.28900119210348413
3.748221832993864,3.046093630870666,0.5955838713335759
3.748221832993864,0.5955838713335759,1.14493078908349
3.748221832993864,0.5955838713335759,-0.28900119210348413
3.748221832993864,1.14493078908349,-0.28900119210348413
2.99197803011165,2.446780778615429,1.14493078908349
2.99197803011165,2.446780778615429,-0.28900119210348413
2.99197803011165,2.446780778615429,-0.7179601192615749
2.99197803011165,2.446780778615429,3.046093630870666
2.99197803011165,2.446780778615429,0.5955838713335759
2.99197803011165,-0.7179601192615749,1.14493078908349
2.99197803011165,-0.7179601192615749,-0.28900119210348413
2.99197803011165,-0.7179601192615749,3.046093630870666
2.99197803011165,-0.7179601192615749,0.5955838713335759
2.99197803011165,3.046093630870666,1.14493078908349
2.99197803011165,3.046093630870666,-0.28900119210348413
2.99197803011165,3.046093630870666,0.5955838713335759
2.99197803011165,0.5955838713335759,1.14493078908349
2.99197803011165,0.5955838713335759,-0.28900119210348413
2.99197803011165,1.14493078908349,-0.28900119210348413
2.446780778615429,1.14493078908349,-0.28900119210348413
2.446780778615429,-0.7179601192615749,1.14493078908349
2.446780778615429,-0.7179601192615749,-0.28900119210348413
2.446780778615429,-0.7179601192615749,3.046093630870666
2.446780778615429,-0.7179601192615749,0.5955838713335759
2.446780778615429,3.046093630870666,1.14493078908349
2.446780778615429,3.046093630870666,-0.28900119210348413
2.446780778615429,3.046093630870666,0.5955838713335759
2.446780778615429,0.5955838713335759,1.14493078908349
2.446780778615429,0.5955838713335759,-0.28900119210348413
-0.7179601192615749,1.14493078908349,-0.28900119210348413
-0.7179601192615749,3.046093630870666,1.14493078908349
-0.7179601192615749,3.046093630870666,-0.28900119210348413
-0.7179601192615749,3.046093630870666,0.5955838713335759
-0.7179601192615749,0.5955838713335759,1.14493078908349
-0.7179601192615749,0.5955838713335759,-0.28900119210348413
3.046093630870666,1.14493078908349,-0.28900119210348413
3.046093630870666,0.5955838713335759,1.14493078908349
3.046093630870666,0.5955838713335759,-0.28900119210348413
0.5955838713335759,1.14493078908349,-0.28900119210348413
