0,1,2
0.019824854632750074,-0.824340275676372,0.23994119614934872
0.019824854632750074,-0.824340275676372,0.5525111034521344
0.019824854632750074,-0.824340275676372,-0.3220439076325521
0.019824854632750074,-0.824340275676372,-1.7754117651471304
0.019824854632750074,-0.824340275676372,0.2974242332261966
0.019824854632750074,-0.824340275676372,0.6127053522757899
0.019824854632750074,-0.824340275676372,3.5224823974111428
0.019824854632750074,-0.824340275676372,1.2402730965814461
0.019824854632750074,0.23994119614934872,0.5525111034521344
0.019824854632750074,0.23994119614934872,-0.3220439076325521
0.019824854632750074,0.23994119614934872,-1.7754117651471304
0.019824854632750074,0.23994119614934872,0.2974242332261966
0.019824854632750074,0.23994119614934872,0.6127053522757899
0.019824854632750074,0.23994119614934872,3.5224823974111428
0.019824854632750074,0.23994119614934872,1.2402730965814461
0.019824854632750074,0.5525111034521344,-0.3220439076325521
0.019824854632750074,0.5525111034521344,-1.7754117651471304
0.019824854632750074,0.5525111034521344,0.2974242332261966
0.019824854632750074,0.5525111034521344,0.6127053522757899
0.019824854632750074,0.5525111034521344,3.5224823974111428
0.019824854632750074,0.5525111034521344,1.2402730965814461
0.019824854632750074,-0.3220439076325521,3.5224823974111428
0.019824854632750074,-0.3220439076325521,1.2402730965814461
0.019824854632750074,-0.3220439076325521,-1.7754117651471304
0.019824854632750074,-0.3220439076325521,0.2974242332261966
0.019824854632750074,-0.3220439076325521,0.6127053522757899
0.019824854632750074,-1.7754117651471304,3.5224823974111428
0.019824854632750074,-1.7754117651471304,1.2402730965814461
0.019824854632750074,-1.7754117651471304,0.2974242332261966
0.019824854632750074,-1.7754117651471304,0.6127053522757899
0.019824854632750074,0.2974242332261966,3.5224823974111428
0.019824854632750074,0.2974242332261966,1.2402730965814461
0.019824854632750074,0.2974242332261966,0.6127053522757899
0.019824854632750074,0.6127053522757899,3.5224823974111428
0.019824854632750074,0.6127053522757899,1.2402730965814461
0.019824854632750074,3.5224823974111428,1.2402730965814461
-0.824340275676372,0.23994119614934872,0.5525111034521344
-0.824340275676372,0.23994119614934872,-0.3220439076325521
-0.824340275676372,0.23994119614934872,-1.7754117651471304
-0.824340275676372,0.23994119614934872,0.2974242332261966
-0.824340275676372,0.23994119614934872,0.6127053522757899
-0.824340275676372,0.23994119614934872,3.5224823974111428
-0.824340275676372,0.23994119614934872,1.2402730965814461
-0.824340275676372,0.5525111034521344,-0.3220439076325521
-0.824340275676372,0.5525111034521344,-1.7754117651471304
-0.824340275676372,0.5525111034521344,0.2974242332261966
-0.824340275676372,0.5525111034521344,0.6127053522757899
-0.824340275676372,0.5525111034521344,3.5224823974111428
-0.824340275676372,0.5525111034521344,1.2402730965814461
-0.824340275676372,-0.3220439076325521,3.5224823974111428
-0.824340275676372,-0.3220439076325521,1.2402730965814461
-0.824340275676372,-0.3220439076325521,-1.7754117651471304
-0.824340275676372,-0.3220439076325521,0.2974242332261966
-0.824340275676372,-0.3220439076325521,0.6127053522757899
-0.824340275676372,-1.7754117651471304,3.5224823974111428
-0.824340275676372,-1.7754117651471304,1.2402730965814461
-0.824340275676372,-1.7754117651471304,0.2974242332261966
-0.824340275676372,-1.7754117651471304,0.6127053522757899
-0.824340275676372,0.2974242332261966,3.5224823974111428
-0.824340275676372,0.2974242332261966,1.2402730965814461
-0.824340275676372,0.2974242332261966,0.6127053522757899
-0.824340275676372,0.6127053522757899,3.5224823974111428
-0.824340275676372,0.6127053522757899,1.2402730965814461
-0.824340275676372,3.5224823974111428,1.2402730965814461
0.23994119614934872,0.5525111034521344,-0.3220439076325521
0.23994119614934872,0.5525111034521344,-1.7754117651471304
0.23994119614934872,0.5525111034521344,0.2974242332261966
0.23994119614934872,0.5525111034521344,0.6127053522757899
0.23994119614934872,0.5525111034521344,3.5224823974111428
0.23994119614934872,0.5525111034521344,1.2402730965814461
0.23994119614934872,-0.3220439076325521,3.5224823974111428
0.23994119614934872,-0.3220439076325521,1.2402730965814461
0.23994119614934872,-0.3220439076325521,-1.7754117651471304
0.23994119614934872,-0.3220439076325521,0.2974242332261966
0.23994119614934872,-0.3220439076325521,0.6127053522757899
0.23994119614934872,-1.7754117651471304,3.5224823974111428
0.23994119614934872,-1.7754117651471304,1.2402730965814461
0.23994119614934872,-1.7754117651471304,0.2974242332261966
0.23994119614934872,-1.7754117651471304,0.6127053522757899
0.23994119614934872,0.2974242332261966,3.5224823974111428
0.23994119614934872,0.2974242332261966,1.2402730965814461
0.23994119614934872,0.2974242332261966,0.6127053522757899
0.23994119614934872,0.6127053522757899,3.5224823974111428
0.23994119614934872,0.6127053522757899,1.2402730965814461
0.23994119614934872,3.5224823974111428,1.2402730965814461
0.5525111034521344,-0.3220439076325521,3.5224823974111428
0.5525111034521344,-0.3220439076325521,1.2402730965814461
0.5525111034521344,-0.3220439076325521,-1.7754117651471304
0.5525111034521344,-0.3220439076325521,0.2974242332261966
0.5525111034521344,-0.3220439076325521,0.6127053522757899
0.5525111034521344,-1.7754117651471304,3.5224823974111428
0.5525111034521344,-1.7754117651471304,1.2402730965814461
0.5525111034521344,-1.7754117651471304,0.2974242332261966
0.5525111034521344,-1.7754117651471304,0.6127053522757899
0.5525111034521344,0.2974242332261966,3.5224823974111428
0.5525111034521344,0.2974242332261966,1.2402730965814461
0.5525111034521344,0.2974242332261966,0.6127053522757899
0.5525111034521344,0.6127053522757899,3.5224823974111428
0.5525111034521344,0.6127053522757899,1.2402730965814461
0.5525111034521344,3.5224823974111428,1.2402730965814461
-0.3220439076325521,3.5224823974111428,1.2402730965814461
-0.3220439076325521,-1.7754117651471304,3.5224823974111428
-0.3220439076325521,-1.7754117651471304,1.2402730965814461
-0.3220439076325521,-1.7754117651471304,0.2974242332261966
-0.3220439076325521,-1.7754117651471304,0.6127053522757899
-0.3220439076325521,0.2974242332261966,3.5224823974111428
-0.3220439076325521,0.2974242332261966,1.2402730965814461
-0.3220439076325521,0.2974242332261966,0.6127053522757899
-0.3220439076325521,0.6127053522757899,3.5224823974111428
-0.3220439076325521,0.6127053522757899,1.2402730965814461
-1.7754117651471304,3.5224823974111428,1.2402730965814461
-1.7754117651471304,0.2974242332261966,3.5224823974111428
-1.7754117651471304,0.2974242332261966,1.2402730965814461
-1.7754117651471304,0.2974242332261966,0.6127053522757899
-1.7754117651471304,0.6127053522757899,3.5224823974111428
-1.7754117651471304,0.6127053522757899,1.2402730965814461
0.2974242332261966,3.5224823974111428,1.2402730965814461
0.2974242332261966,0.6127053522757899,3.5224823974111428
0.2974242332261966,0.6127053522757899,1.2402730965814461
0.6127053522757899,3.5224823974111428,1.2402730965814461
