0,1,2
0.9690729017158239,0.5417818797525156,-0.492334694574401
0.9690729017158239,0.5417818797525156,-0.35327856860653106
0.9690729017158239,0.5417818797525156,2.6139159313388993
0.9690729017158239,0.5417818797525156,2.1927097005692144
0.9690729017158239,0.5417818797525156,-2.824372216797735
0.9690729017158239,0.5417818797525156,0.8194316091027752
0.9690729017158239,0.5417818797525156,0.5129494045499843
0.9690729017158239,0.5417818797525156,-1.8116275329357918
0.9690729017158239,-0.492334694574401,-0.35327856860653106
0.9690729017158239,-0.492334694574401,2.6139159313388993
0.9690729017158239,-0.492334694574401,2.1927097005692144
0.9690729017158239,-0.492334694574401,-2.824372216797735
0.9690729017158239,-0.492334694574401,0.8194316091027752
0.9690729017158239,-0.492334694574401,0.5129494045499843
0.9690729017158239,-0.492334694574401,-1.8116275329357918
0.9690729017158239,-0.35327856860653106,2.6139159313388993
0.9690729017158239,-0.35327856860653106,2.1927097005692144
0.9690729017158239,-0.35327856860653106,-2.824372216797735
0.9690729017158239,-0.35327856860653106,0.8194316091027752
0.9690729017158239,-0.35327856860653106,0.5129494045499843
0.9690729017158239,-0.35327856860653106,-1.8116275329357918
0.9690729017158239,2.6139159313388993,0.5129494045499843
0.9690729017158239,2.6139159313388993,-1.8116275329357918
0.9690729017158239,2.6139159313388993,2.1927097005692144
0.9690729017158239,2.6139159313388993,-2.824372216797735
0.9690729017158239,2.6139159313388993,0.8194316091027752
0.9690729017158239,2.1927097005692144,0.5129494045499843
0.9690729017158239,2.1927097005692144,-1.8116275329357918
0.9690729017158239,2.1927097005692144,-2.824372216797735
0.9690729017158239,2.1927097005692144,0.8194316091027752
0.9690729017158239,-2.824372216797735,0.5129494045499843
0.9690729017158239,-2.824372216797735,-1.8116275329357918
0.9690729017158239,-2.824372216797735,0.8194316091027752
0.9690729017158239,0.8194316091027752,0.5129494045499843
0.9690729017158239,0.8194316091027752,-1.8116275329357918
0.9690729017158239,0.5129494045499843,-1.8116275329357918
0.5417818797525156,-0.492334694574401,-0.35327856860653106
0.5417818797525156,-0.492334694574401,2.6139159313388993
0.5417818797525156,-0.492334694574401,2.1927097005692144
0.5417818797525156,-0.492334694574401,-2.824372216797735
0.5417818797525156,-0.492334694574401,0.8194316091027752
0.5417818797525156,-0.492334694574401,0.5129494045499843
0.5417818797525156,-0.492334694574401,-1.8116275329357918
0.5417818797525156,-0.35327856860653106,2.6139159313388993
0.5417818797525156,-0.35327856860653106,2.1927097005692144
0.5417818797525156,-0.35327856860653106,-2.824372216797735
0.5417818797525156,-0.35327856860653106,0.8194316091027752
0.5417818797525156,-0.35327856860653106,0.5129494045499843
0.5417818797525156,-0.35327856860653106,-1.8116275329357918
0.5417818797525156,2.6139159313388993,0.5129494045499843
0.5417818797525156,2.6139159313388993,-1.8116275329357918
0.5417818797525156,2.6139159313388993,2.1927097005692144
0.5417818797525156,2.6139159313388993,-2.824372216797735
0.5417818797525156,2.6139159313388993,0.8194316091027752
0.5417818797525156,2.1927097005692144,0.5129494045499843
0.5417818797525156,2.1927097005692144,-1.8116275329357918
0.5417818797525156,2.1927097005692144,-2.824372216797735
0.5417818797525156,2.1927097005692144,0.8194316091027752
0.5417818797525156,-2.824372216797735,0.5129494045499843
0.5417818797525156,-2.824372216797735,-1.8116275329357918
0.5417818797525156,-2.824372216797735,0.8194316091027752
0.5417818797525156,0.8194316091027752,0.5129494045499843
0.5417818797525156,0.8194316091027752,-1.8116275329357918
0.5417818797525156,0.5129494045499843,-1.8116275329357918
-0.492334694574401,-0.35327856860653106,2.6139159313388993
-0.492334694574401,-0.35327856860653106,2.1927097005692144
-0.492334694574401,-0.35327856860653106,-2.824372216797735
-0.492334694574401,-0.35327856860653106,0.8194316091027752
-0.492334694574401,-0.35327856860653106,0.5129494045499843
-0.492334694574401,-0.35327856860653106,-1.8116275329357918
-0.492334694574401,2.6139159313388993,0.5129494045499843
-0.492334694574401,2.6139159313388993,-1.8116275329357918
-0.492334694574401,2.6139159313388993,2.1927097005692144
-0.492334694574401,2.6139159313388993,-2.824372216797735
-0.492334694574401,2.6139159313388993,0.8194316091027752
-0.492334694574401,2.1927097005692144,0.5129494045499843
-0.492334694574401,2.1927097005692144,-1.8116275329357918
-0.492334694574401,2.1927097005692144,-2.824372216797735
-0.492334694574401,2.1927097005692144,0.8194316091027752
-0.492334694574401,-2.824372216797735,0.5129494045499843
-0.492334694574401,-2.824372216797735,-1.8116275329357918
-0.492334694574401,-2.824372216797735,0.8194316091027752
-0.492334694574401,0.8194316091027752,0.5129494045499843
-0.492334694574401,0.8194316091027752,-1.8116275329357918
-0.492334694574401,0.5129494045499843,-1.8116275329357918
-0.35327856860653106,2.6139159313388993,0.5129494045499843
-0.35327856860653106,2.6139159313388993,-1.8116275329357918
-0.35327856860653106,2.6139159313388993,2.1927097005692144
-0.35327856860653106,2.6139159313388993,-2.824372216797735
-0.35327856860653106,2.6139159313388993,0.8194316091027752
-0.35327856860653106,2.1927097005692144,0.5129494045499843
-0.35327856860653106,2.1927097005692144,-1.8116275329357918
-0.35327856860653106,2.1927097005692144,-2.824372216797735
-0.35327856860653106,2.1927097005692144,0.8194316091027752
-0.35327856860653106,-2.824372216797735,0.5129494045499843
-0.35327856860653106,-2.824372216797735,-1.8116275329357918
-0.35327856860653106,-2.824372216797735,0.8194316091027752
-0.35327856860653106,0.8194316091027752,0.5129494045499843
-0.35327856860653106,0.8194316091027752,-1.8116275329357918
-0.35327856860653106,0.5129494045499843,-1.8116275329357918
2.6139159313388993,0.5129494045499843,-1.8116275329357918
2.6139159313388993,2.1927097005692144,0.5129494045499843
2.6139159313388993,2.1927097005692144,-1.8116275329357918
2.6139159313388993,2.1927097005692144,-2.824372216797735
2.6139159313388993,2.1927097005692144,0.8194316091027752
2.6139159313388993,-2.824372216797735,0.5129494045499843
2.6139159313388993,-2.824372216797735,-1.8116275329357918
2.6139159313388993,-2.824372216797735,0.8194316091027752
2.6139159313388993,0.8194316091027752,0.5129494045499843
2.6139159313388993,0.8194316091027752,-1.8116275329357918
2.1927097005692144,0.5129494045499843,-1.8116275329357918
2.1927097005692144,-2.824372216797735,0.5129494045499843
2.1927097005692144,-2.824372216797735,-1.8116275329357918
2.1927097005692144,-2.824372216797735,0.8194316091027752
2.1927097005692144,0.8194316091027752,0.5129494045499843
2.1927097005692144,0.8194316091027752,-1.8116275329357918
-2.824372216797735,0.5129494045499843,-1.8116275329357918
-2.824372216797735,0.8194316091027752,0.5129494045499843
-2.824372216797735,0.8194316091027752,-1.8116275329357918
0.8194316091027752,0.5129494045499843,-1.8116275329357918
