0,1,2
4.787100814278734,-1.4705754890327438,1.0661032571153808
4.787100814278734,-1.4705754890327438,-0.8822412915511204
4.787100814278734,-1.4705754890327438,-2.281113444229519
4.787100814278734,-1.4705754890327438,0.12245566511797293
4.787100814278734,-1.4705754890327438,-3.2736327611408886
4.787100814278734,-1.4705754890327438,-0.21954041355391427
4.787100814278734,-1.4705754890327438,1.5159507182823255
4.787100814278734,-1.4705754890327438,-1.151649535423886
4.787100814278734,1.0661032571153808,-0.8822412915511204
4.787100814278734,1.0661032571153808,-2.281113444229519
4.787100814278734,1.0661032571153808,0.12245566511797293
4.787100814278734,1.0661032571153808,-3.2736327611408886
4.787100814278734,1.0661032571153808,-0.21954041355391427
4.787100814278734,1.0661032571153808,1.5159507182823255
4.787100814278734,1.0661032571153808,-1.151649535423886
4.787100814278734,-0.8822412915511204,-2.281113444229519
4.787100814278734,-0.8822412915511204,0.12245566511797293
4.787100814278734,-0.8822412915511204,-3.2736327611408886
4.787100814278734,-0.8822412915511204,-0.21954041355391427
4.787100814278734,-0.8822412915511204,1.5159507182823255
4.787100814278734,-0.8822412915511204,-1.151649535423886
4.787100814278734,-2.281113444229519,1.5159507182823255
4.787100814278734,-2.281113444229519,-1.151649535423886
4.787100814278734,-2.281113444229519,0.12245566511797293
4.787100814278734,-2.281113444229519,-3.2736327611408886
4.787100814278734,-2.281113444229519,-0.21954041355391427
4.787100814278734,0.12245566511797293,1.5159507182823255
4.787100814278734,0.12245566511797293,-1.151649535423886
4.787100814278734,0.12245566511797293,-3.2736327611408886
4.787100814278734,0.12245566511797293,-0.21954041355391427
4.787100814278734,-3.2736327611408886,1.5159507182823255
4.787100814278734,-3.2736327611408886,-1.151649535423886
4.787100814278734,-3.2736327611408886,-0.21954041355391427
4.787100814278734,-0.21954041355391427,1.5159507182823255
4.787100814278734,-0.21954041355391427,-1.151649535423886
4.787100814278734,1.5159507182823255,-1.151649535423886
-1.4705754890327438,1.0661032571153808,-0.8822412915511204
-1.4705754890327438,1.0661032571153808,-2.281113444229519
-1.4705754890327438,1.0661032571153808,0.12245566511797293
-1.4705754890327438,1.0661032571153808,-3.2736327611408886
-1.4705754890327438,1.0661032571153808,-0.21954041355391427
-1.4705754890327438,1.0661032571153808,1.5159507182823255
-1.4705754890327438,1.0661032571153808,-1.151649535423886
-1.4705754890327438,-0.8822412915511204,-2.281113444229519
-1.4705754890327438,-0.8822412915511204,0.12245566511797293
-1.4705754890327438,-0.8822412915511204,-3.2736327611408886
-1.4705754890327438,-0.8822412915511204,-0.21954041355391427
-1.4705754890327438,-0.8822412915511204,1.5159507182823255
-1.4705754890327438,-0.8822412915511204,-1.151649535423886
-1.4705754890327438,-2.281113444229519,1.5159507182823255
-1.4705754890327438,-2.281113444229519,-1.151649535423886
-1.4705754890327438,-2.281113444229519,0.12245566511797293
-1.4705754890327438,-2.281113444229519,-3.2736327611408886
-1.4705754890327438,-2.281113444229519,-0.21954041355391427
-1.4705754890327438,0.12245566511797293,1.5159507182823255
-1.4705754890327438,0.12245566511797293,-1.151649535423886
-1.4705754890327438,0.12245566511797293,-3.2736327611408886
-1.4705754890327438,0.12245566511797293,-0.21954041355391427
-1.4705754890327438,-3.2736327611408886,1.5159507182823255
-1.4705754890327438,-3.2736327611408886,-1.151649535423886
-1.4705754890327438,-3.2736327611408886,-0.21954041355391427
-1.4705754890327438,-0.21954041355391427,1.5159507182823255
-1.4705754890327438,-0.21954041355391427,-1.151649535423886
-1.4705754890327438,1.5159507182823255,-1.151649535423886
1.0661032571153808,-0.8822412915511204,-2.281113444229519
1.0661032571153808,-0.8822412915511204,0.12245566511797293
1.0661032571153808,-0.8822412915511204,-3.2736327611408886
1.0661032571153808,-0.8822412915511204,-0.21954041355391427
1.0661032571153808,-0.8822412915511204,1.5159507182823255
1.0661032571153808,-0.8822412915511204,-1.151649535423886
1.0661032571153808,-2.281113444229519,1.5159507182823255
1.0661032571153808,-2.281113444229519,-1.151649535423886
1.0661032571153808,-2.281113444229519,0.12245566511797293
1.0661032571153808,-2.281113444229519,-3.2736327611408886
1.0661032571153808,-2.281113444229519,-0.21954041355391427
1.0661032571153808,0.12245566511797293,1.5159507182823255
1.0661032571153808,0.12245566511797293,-1.151649535423886
1.0661032571153808,0.12245566511797293,-3.2736327611408886
1.0661032571153808,0.12245566511797293,-0.21954041355391427
1.0661032571153808,-3.2736327611408886,1.5159507182823255
1.0661032571153808,-3.2736327611408886,-1.151649535423886
1.0661032571153808,-3.2736327611408886,-0.21954041355391427
1.0661032571153808,-0.21954041355391427,1.5159507182823255
1.0661032571153808,-0.21954041355391427,-1.151649535423886
1.0661032571153808,1.5159507182823255,-1.151649535423886
-0.8822412915511204,-2.281113444229519,1.5159507182823255
-0.8822412915511204,-2.281113444229519,-1.151649535423886
-0.8822412915511204,-2.281113444229519,0.12245566511797293
-0.8822412915511204,-2.281113444229519,-3.2736327611408886
-0.8822412915511204,-2.281113444229519,-0.21954041355391427
-0.8822412915511204,0.12245566511797293,1.5159507182823255
-0.8822412915511204,0.12245566511797293,-1.151649535423886
-0.8822412915511204,0.12245566511797293,-3.2736327611408886
-0.8822412915511204,0.12245566511797293,-0.21954041355391427
-0.8822412915511204,-3.2736327611408886,1.5159507182823255
-0.8822412915511204,-3.2736327611408886,-1.151649535423886
-0.8822412915511204,-3.2736327611408886,-0.21954041355391427
-0.8822412915511204,-0.21954041355391427,1.5159507182823255
-0.8822412915511204,-0.21954041355391427,-1.151649535423886
-0.8822412915511204,1.5159507182823255,-1.151649535423886
-2.281113444229519,1.5159507182823255,-1.151649535423886
-2.281113444229519,0.12245566511797293,1.5159507182823255
-2.281113444229519,0.12245566511797293,-1.151649535423886
-2.281113444229519,0.12245566511797293,-3.2736327611408886
-2.281113444229519,0.12245566511797293,-0.21954041355391427
-2.281113444229519,-3.2736327611408886,1.5159507182823255
-2.281113444229519,-3.2736327611408886,-1.151649535423886
-2.281113444229519,-3.2736327611408886,-0.21954041355391427
-2.281113444229519,-0.21954041355391427,1.5159507182823255
-2.281113444229519,-0.21954041355391427,-1.151649535423886
0.12245566511797293,1.5159507182823255,-1.151649535423886
0.12245566511797293,-3.2736327611408886,1.5159507182823255
0.12245566511797293,-3.2736327611408886,-1.151649535423886
0.12245566511797293,-3.2736327611408886,-0.21954041355391427
0.12245566511797293,-0.21954041355391427,1.5159507182823255
0.12245566511797293,-0.21954041355391427,-1.151649535423886
-3.2736327611408886,1.5159507182823255,-1.151649535423886
-3.2736327611408886,-0.21954041355391427,1.5159507182823255
-3.2736327611408886,-0.21954041355391427,-1.151649535423886
-0.21954041355391427,1.5159507182823255,-1.151649535423886
