0,1,2
-4.325330087382552,3.0259505537480207,-2.8001856803718126
-4.325330087382552,3.0259505537480207,1.7753593963164533
-4.325330087382552,3.0259505537480207,2.3381682718960324
-4.325330087382552,3.0259505537480207,-0.1331155055561934
-4.325330087382552,3.0259505537480207,0.4963853879110077
-4.325330087382552,3.0259505537480207,-0.19281864819309613
-4.325330087382552,3.0259505537480207,3.6614630207709826
-4.325330087382552,3.0259505537480207,0.792574144080896
-4.325330087382552,-2.8001856803718126,1.7753593963164533
-4.325330087382552,-2.8001856803718126,2.3381682718960324
-4.325330087382552,-2.8001856803718126,-0.1331155055561934
-4.325330087382552,-2.8001856803718126,0.4963853879110077
-4.325330087382552,-2.8001856803718126,-0.19281864819309613
-4.325330087382552,-2.8001856803718126,3.6614630207709826
-4.325330087382552,-2.8001856803718126,0.792574144080896
-4.325330087382552,1.7753593963164533,2.3381682718960324
-4.325330087382552,1.7753593963164533,-0.1331155055561934
-4.325330087382552,1.7753593963164533,0.4963853879110077
-4.325330087382552,1.7753593963164533,-0.19281864819309613
-4.325330087382552,1.7753593963164533,3.6614630207709826
-4.325330087382552,1.7753593963164533,0.792574144080896
-4.325330087382552,2.3381682718960324,3.6614630207709826
-4.325330087382552,2.3381682718960324,0.792574144080896
-4.325330087382552,2.3381682718960324,-0.1331155055561934
-4.325330087382552,2.3381682718960324,0.4963853879110077
-4.325330087382552,2.3381682718960324,-0.19281864819309613
-4.325330087382552,-0.1331155055561934,3.6614630207709826
-4.325330087382552,-0.1331155055561934,0.792574144080896
-4.325330087382552,-0.1331155055561934,0.4963853879110077
-4.325330087382552,-0.1331155055561934,-0.19281864819309613
-4.325330087382552,0.4963853879110077,3.6614630207709826
-4.325330087382552,0.4963853879110077,0.792574144080896
-4.325330087382552,0.4963853879110077,-0.19281864819309613
-4.325330087382552,-0.19281864819309613,3.6614630207709826
-4.325330087382552,-0.19281864819309613,0.792574144080896
-4.325330087382552,3.6614630207709826,0.792574144080896
3.0259505537480207,-2.8001856803718126,1.7753593963164533
3.0259505537480207,-2.8001856803718126,2.3381682718960324
3.0259505537480207,-2.8001856803718126,-0.1331155055561934
3.0259505537480207,-2.8001856803718126,0.4963853879110077
3.0259505537480207,-2.8001856803718126,-0.19281864819309613
3.0259505537480207,-2.8001856803718126,3.6614630207709826
3.0259505537480207,-2.8001856803718126,0.792574144080896
3.0259505537480207,1.7753593963164533,2.3381682718960324
3.0259505537480207,1.7753593963164533,-0.1331155055561934
3.0259505537480207,1.7753593963164533,0.4963853879110077
3.0259505537480207,1.7753593963164533,-0.19281864819309613
3.0259505537480207,1.7753593963164533,3.6614630207709826
3.0259505537480207,1.7753593963164533,0.792574144080896
3.0259505537480207,2.3381682718960324,3.6614630207709826
3.0259505537480207,2.3381682718960324,0.792574144080896
3.0259505537480207,2.3381682718960324,-0.1331155055561934
3.0259505537480207,2.3381682718960324,0.4963853879110077
3.0259505537480207,2.3381682718960324,-0.19281864819309613
3.0259505537480207,-0.1331155055561934,3.6614630207709826
3.0259505537480207,-0.1331155055561934,0.792574144080896
3.0259505537480207,-0.1331155055561934,0.4963853879110077
3.0259505537480207,-0.1331155055561934,-0.19281864819309613
3.0259505537480207,0.4963853879110077,3.6614630207709826
3.0259505537480207,0.4963853879110077,0.792574144080896
3.0259505537480207,0.4963853879110077,-0.19281864819309613
3.0259505537480207,-0.19281864819309613,3.6614630207709826
3.0259505537480207,-0.19281864819309613,0.792574144080896
3.0259505537480207,3.6614630207709826,0.792574144080896
-2.8001856803718126,1.7753593963164533,2.3381682718960324
-2.8001856803718126,1.7753593963164533,-0.1331155055561934
-2.8001856803718126,1.7753593963164533,0.4963853879110077
-2.8001856803718126,1.7753593963164533,-0.19281864819309613
-2.8001856803718126,1.7753593963164533,3.6614630207709826
-2.8001856803718126,1.7753593963164533,0.792574144080896
-2.8001856803718126,2.3381682718960324,3.6614630207709826
-2.8001856803718126,2.3381682718960324,0.792574144080896
-2.8001856803718126,2.3381682718960324,-0.1331155055561934
-2.8001856803718126,2.3381682718960324,0.4963853879110077
-2.8001856803718126,2.3381682718960324,-0.19281864819309613
-2.8001856803718126,-0.1331155055561934,3.6614630207709826
-2.8001856803718126,-0.1331155055561934,0.792574144080896
-2.8001856803718126,-0.1331155055561934,0.4963853879110077
-2.8001856803718126,-0.1331155055561934,-0.19281864819309613
-2.8001856803718126,0.4963853879110077,3.6614630207709826
-2.8001856803718126,0.4963853879110077,0.792574144080896
-2.8001856803718126,0.4963853879110077,-0.19281864819309613
-2.8001856803718126,-0.19281864819309613,3.6614630207709826
-2.8001856803718126,-0.19281864819309613,0.792574144080896
-2.8001856803718126,3.6614630207709826,0.792574144080896
1.7753593963164533,2.3381682718960324,3.6614630207709826
1.7753593963164533,2.3381682718960324,0.792574144080896
1.7753593963164533,2.3381682718960324,-0.1331155055561934
1.7753593963164533,2.3381682718960324,0.4963853879110077
1.7753593963164533,2.3381682718960324,-0.19281864819309613
1.7753593963164533,-0.1331155055561934,3.6614630207709826
1.7753593963164533,-0.1331155055561934,0.792574144080896
1.7753593963164533,-0.1331155055561934,0.4963853879110077
1.7753593963164533,-0.1331155055561934,-0.19281864819309613
1.7753593963164533,0.4963853879110077,3.6614630207709826
1.7753593963164533,0.4963853879110077,0.792574144080896
1.7753593963164533,0.4963853879110077,-0.19281864819309613
1.7753593963164533,-0.19281864819309613,3.6614630207709826
1.7753593963164533,-0.19281864819309613,0.792574144080896
1.7753593963164533,3.6614630207709826,0.792574144080896
2.3381682718960324,3.6614630207709826,0.792574144080896
2.3381682718960324,-0.1331155055561934,3.6614630207709826
2.3381682718960324,-0.1331155055561934,0.792574144080896
2.3381682718960324,-0.1331155055561934,0.4963853879110077
2.3381682718960324,-0.1331155055561934,-0.19281864819309613
2.3381682718960324,0.4963853879110077,3.6614630207709826
2.3381682718960324,0.4963853879110077,0.792574144080896
2.3381682718960324,0.4963853879110077,-0.19281864819309613
2.3381682718960324,-0.19281864819309613,3.6614630207709826
2.3381682718960324,-0.19281864819309613,0.792574144080896
-0.1331155055561934,3.6614630207709826,0.792574144080896
-0.1331155055561934,0.4963853879110077,3.6614630207709826
-0.1331155055561934,0.4963853879110077,0.792574144080896
-0.1331155055561934,0.4963853879110077,-0.19281864819309613
-0.1331155055561934,-0.19281864819309613,3.6614630207709826
-0.1331155055561934,-0.19281864819309613,0.792574144080896
0.4963853879110077,3.6614630207709826,0.792574144080896
0.4963853879110077,-0.19281864819309613,3.6614630207709826
0.4963853879110077,-0.19281864819309613,0.792574144080896
-0.19281864819309613,3.6614630207709826,0.792574144080896
