0,1,2
-0.20476130686185706,-2.112433779661728,-0.9082738799824136
-0.20476130686185706,-2.112433779661728,1.4100655853314918
-0.20476130686185706,-2.112433779661728,0.04778308556378346
-0.20476130686185706,-2.112433779661728,1.908797702421369
-0.20476130686185706,-2.112433779661728,2.1252584102139043
-0.20476130686185706,-2.112433779661728,4.177713652350191
-0.20476130686185706,-2.112433779661728,0.25434926404555264
-0.20476130686185706,-2.112433779661728,-1.2060306196498063
-0.20476130686185706,-0.9082738799824136,1.4100655853314918
-0.20476130686185706,-0.9082738799824136,0.04778308556378346
-0.20476130686185706,-0.9082738799824136,1.908797702421369
-0.20476130686185706,-0.9082738799824136,2.1252584102139043
-0.20476130686185706,-0.9082738799824136,4.177713652350191
-0.20476130686185706,-0.9082738799824136,0.25434926404555264
-0.20476130686185706,-0.9082738799824136,-1.2060306196498063
-0.20476130686185706,1.4100655853314918,0.04778308556378346
-0.20476130686185706,1.4100655853314918,1.908797702421369
-0.20476130686185706,1.4100655853314918,2.1252584102139043
-0.20476130686185706,1.4100655853314918,4.177713652350191
-0.20476130686185706,1.4100655853314918,0.25434926404555264
-0.20476130686185706,1.4100655853314918,-1.2060306196498063
-0.20476130686185706,0.04778308556378346,0.25434926404555264
-0.20476130686185706,0.04778308556378346,-1.2060306196498063
-0.20476130686185706,0.04778308556378346,1.908797702421369
-0.20476130686185706,0.04778308556378346,2.1252584102139043
-0.20476130686185706,0.04778308556378346,4.177713652350191
-0.20476130686185706,1.908797702421369,0.25434926404555264
-0.20476130686185706,1.908797702421369,-1.2060306196498063
-0.20476130686185706,1.908797702421369,2.1252584102139043
-0.20476130686185706,1.908797702421369,4.177713652350191
-0.20476130686185706,2.1252584102139043,0.25434926404555264
-0.20476130686185706,2.1252584102139043,-1.2060306196498063
-0.20476130686185706,2.1252584102139043,4.177713652350191
-0.20476130686185706,4.177713652350191,0.25434926404555264
-0.20476130686185706,4.177713652350191,-1.2060306196498063
-0.20476130686185706,0.25434926404555264,-1.2060306196498063
-2.112433779661728,-0.9082738799824136,1.4100655853314918
-2.112433779661728,-0.9082738799824136,0.04778308556378346
-2.112433779661728,-0.9082738799824136,1.908797702421369
-2.112433779661728,-0.9082738799824136,2.1252584102139043
-2.112433779661728,-0.9082738799824136,4.177713652350191
-2.112433779661728,-0.9082738799824136,0.25434926404555264
-2.112433779661728,-0.9082738799824136,-1.2060306196498063
-2.112433779661728,1.4100655853314918,0.04778308556378346
-2.112433779661728,1.4100655853314918,1.908797702421369
-2.112433779661728,1.4100655853314918,2.1252584102139043
-2.112433779661728,1.4100655853314918,4.177713652350191
-2.112433779661728,1.4100655853314918,0.25434926404555264
-2.112433779661728,1.4100655853314918,-1.2060306196498063
-2.112433779661728,0.04778308556378346,0.25434926404555264
-2.112433779661728,0.04778308556378346,-1.2060306196498063
-2.112433779661728,0.04778308556378346,1.908797702421369
-2.112433779661728,0.04778308556378346,2.1252584102139043
-2.112433779661728,0.04778308556378346,4.177713652350191
-2.112433779661728,1.908797702421369,0.25434926404555264
-2.112433779661728,1.908797702421369,-1.2060306196498063
-2.112433779661728,1.908797702421369,2.1252584102139043
-2.112433779661728,1.908797702421369,4.177713652350191
-2.112433779661728,2.1252584102139043,0.25434926404555264
-2.112433779661728,2.1252584102139043,-1.2060306196498063
-2.112433779661728,2.1252584102139043,4.177713652350191
-2.112433779661728,4.177713652350191,0.25434926404555264
-2.112433779661728,4.177713652350191,-1.2060306196498063
-2.112433779661728,0.25434926404555264,-1.2060306196498063
-0.9082738799824136,1.4100655853314918,0.04778308556378346
-0.9082738799824136,1.4100655853314918,1.908797702421369
-0.9082738799824136,1.4100655853314918,2.1252584102139043
-0.9082738799824136,1.4100655853314918,4.177713652350191
-0.9082738799824136,1.4100655853314918,0.25434926404555264
-0.9082738799824136,1.4100655853314918,-1.2060306196498063
-0.9082738799824136,0.04778308556378346,0.25434926404555264
-0.9082738799824136,0.04778308556378346,-1.2060306196498063
-0.9082738799824136,0.04778308556378346,1.908797702421369
-0.9082738799824136,0.04778308556378346,2.1252584102139043
-0.9082738799824136,0.04778308556378346,4.177713652350191
-0.9082738799824136,1.908797702421369,0.25434926404555264
-0.9082738799824136,1.908797702421369,-1.2060306196498063
-0.9082738799824136,1.908797702421369,2.1252584102139043
-0.9082738799824136,1.908797702421369,4.177713652350191
-0.9082738799824136,2.1252584102139043,0.25434926404555264
-0.9082738799824136,2.1252584102139043,-1.2060306196498063
-0.9082738799824136,2.1252584102139043,4.177713652350191
-0.9082738799824136,4.177713652350191,0.25434926404555264
-0.9082738799824136,4.177713652350191,-1.2060306196498063
-0.9082738799824136,0.25434926404555264,-1.2060306196498063
1.4100655853314918,0.04778308556378346,0.25434926404555264
1.4100655853314918,0.04778308556378346,-1.2060306196498063
1.4100655853314918,0.04778308556378346,1.908797702421369
1.4100655853314918,0.04778308556378346,2.1252584102139043
1.4100655853314918,0.04778308556378346,4.177713652350191
1.4100655853314918,1.908797702421369,0.25434926404555264
1.4100655853314918,1.908797702421369,-1.2060306196498063
1.4100655853314918,1.908797702421369,2.1252584102139043
1.4100655853314918,1.908797702421369,4.177713652350191
1.4100655853314918,2.1252584102139043,0.25434926404555264
1.4100655853314918,2.1252584102139043,-1.2060306196498063
1.4100655853314918,2.1252584102139043,4.177713652350191
1.4100655853314918,4.177713652350191,0.25434926404555264
1.4100655853314918,4.177713652350191,-1.2060306196498063
1.4100655853314918,0.25434926404555264,-1.2060306196498063
0.04778308556378346,0.25434926404555264,-1.2060306196498063
0.04778308556378346,1.908797702421369,0.25434926404555264
0.04778308556378346,1.908797702421369,-1.2060306196498063
0.04778308556378346,1.908797702421369,2.1252584102139043
0.04778308556378346,1.908797702421369,4.177713652350191
0.04778308556378346,2.1252584102139043,0.25434926404555264
0.04778308556378346,2.1252584102139043,-1.2060306196498063
0.04778308556378346,2.1252584102139043,4.177713652350191
0.04778308556378346,4.177713652350191,0.25434926404555264
0.04778308556378346,4.177713652350191,-1.2060306196498063
1.908797702421369,0.25434926404555264,-1.2060306196498063
1.908797702421369,2.1252584102139043,0.25434926404555264
1.908797702421369,2.1252584102139043,-1.2060306196498063
1.908797702421369,2.1252584102139043,4.177713652350191
1.908797702421369,4.177713652350191,0.25434926404555264
1.908797702421369,4.177713652350191,-1.2060306196498063
2.1252584102139043,0.25434926404555264,-1.2060306196498063
2.1252584102139043,4.177713652350191,0.25434926404555264
2.1252584102139043,4.177713652350191,-1.2060306196498063
4.177713652350191,0.25434926404555264,-1.2060306196498063
