0,1,2
1.6154247803003445,-2.721928588532855,0.5629116172710251
1.6154247803003445,-2.721928588532855,0.7350300469248263
1.6154247803003445,-2.721928588532855,-1.08589784407495
1.6154247803003445,-2.721928588532855,0.35972793060924
1.6154247803003445,-2.721928588532855,1.3603645814507137
1.6154247803003445,-2.721928588532855,-0.49512915313685185
1.6154247803003445,-2.721928588532855,-1.5722950521712045
1.6154247803003445,-2.721928588532855,-0.31860350036935015
1.6154247803003445,0.5629116172710251,0.7350300469248263
1.6154247803003445,0.5629116172710251,-1.08589784407495
1.6154247803003445,0.5629116172710251,0.35972793060924
1.6154247803003445,0.5629116172710251,1.3603645814507137
1.6154247803003445,0.5629116172710251,-0.49512915313685185
1.6154247803003445,0.5629116172710251,-1.5722950521712045
1.6154247803003445,0.5629116172710251,-0.31860350036935015
1.6154247803003445,0.7350300469248263,-1.08589784407495
1.6154247803003445,0.7350300469248263,0.35972793060924
1.6154247803003445,0.7350300469248263,1.3603645814507137
1.6154247803003445,0.7350300469248263,-0.49512915313685185
1.6154247803003445,0.7350300469248263,-1.5722950521712045
1.6154247803003445,0.7350300469248263,-0.31860350036935015
1.6154247803003445,-1.08589784407495,-1.5722950521712045
1.6154247803003445,-1.08589784407495,-0.31860350036935015
1.6154247803003445,-1.08589784407495,0.35972793060924
1.6154247803003445,-1.08589784407495,1.3603645814507137
1.6154247803003445,-1.08589784407495,-0.49512915313685185
1.6154247803003445,0.35972793060924,-1.5722950521712045
1.6154247803003445,0.35972793060924,-0.31860350036935015
1.6154247803003445,0.35972793060924,1.3603645814507137
1.6154247803003445,0.35972793060924,-0.49512915313685185
1.6154247803003445,1.3603645814507137,-1.5722950521712045
1.6154247803003445,1.3603645814507137,-0.31860350036935015
1.6154247803003445,1.3603645814507137,-0.49512915313685185
1.6154247803003445,-0.49512915313685185,-1.5722950521712045
1.6154247803003445,-0.49512915313685185,-0.31860350036935015
1.6154247803003445,-1.5722950521712045,-0.31860350036935015
-2.721928588532855,0.5629116172710251,0.7350300469248263
-2.721928588532855,0.5629116172710251,-1.08589784407495
-2.721928588532855,0.5629116172710251,0.35972793060924
-2.721928588532855,0.5629116172710251,1.3603645814507137
-2.721928588532855,0.5629116172710251,-0.49512915313685185
-2.721928588532855,0.5629116172710251,-1.5722950521712045
-2.721928588532855,0.5629116172710251,-0.31860350036935015
-2.721928588532855,0.7350300469248263,-1.08589784407495
-2.721928588532855,0.7350300469248263,0.35972793060924
-2.721928588532855,0.7350300469248263,1.3603645814507137
-2.721928588532855,0.7350300469248263,-0.49512915313685185
-2.721928588532855,0.7350300469248263,-1.5722950521712045
-2.721928588532855,0.7350300469248263,-0.31860350036935015
-2.721928588532855,-1.08589784407495,-1.5722950521712045
-2.721928588532855,-1.08589784407495,-0.31860350036935015
-2.721928588532855,-1.08589784407495,0.35972793060924
-2.721928588532855,-1.08589784407495,1.3603645814507137
-2.721928588532855,-1.08589784407495,-0.49512915313685185
-2.721928588532855,0.35972793060924,-1.5722950521712045
-2.721928588532855,0.35972793060924,-0.31860350036935015
-2.721928588532855,0.35972793060924,1.3603645814507137
-2.721928588532855,0.35972793060924,-0.49512915313685185
-2.721928588532855,1.3603645814507137,-1.5722950521712045
-2.721928588532855,1.3603645814507137,-0.31860350036935015
-2.721928588532855,1.3603645814507137,-0.49512915313685185
-2.721928588532855,-0.49512915313685185,-1.5722950521712045
-2.721928588532855,-0.49512915313685185,-0.31860350036935015
-2.721928588532855,-1.5722950521712045,-0.31860350036935015
0.5629116172710251,0.7350300469248263,-1.08589784407495
0.5629116172710251,0.7350300469248263,0.35972793060924
0.5629116172710251,0.7350300469248263,1.3603645814507137
0.5629116172710251,0.7350300469248263,-0.49512915313685185
0.5629116172710251,0.7350300469248263,-1.5722950521712045
0.5629116172710251,0.7350300469248263,-0.31860350036935015
0.5629116172710251,-1.08589784407495,-1.5722950521712045
0.5629116172710251,-1.08589784407495,-0.31860350036935015
0.5629116172710251,-1.08589784407495,0.35972793060924
0.5629116172710251,-1.08589784407495,1.3603645814507137
0.5629116172710251,-1.08589784407495,-0.49512915313685185
0.5629116172710251,0.35972793060924,-1.5722950521712045
0.5629116172710251,0.35972793060924,-0.31860350036935015
0.5629116172710251,0.35972793060924,1.3603645814507137
0.5629116172710251,0.35972793060924,-0.49512915313685185
0.5629116172710251,1.3603645814507137,-1.5722950521712045
0.5629116172710251,1.3603645814507137,-0.31860350036935015
0.5629116172710251,1.3603645814507137,-0.49512915313685185
0.5629116172710251,-0.49512915313685185,-1.5722950521712045
0.5629116172710251,-0.49512915313685185,-0.31860350036935015
0.5629116172710251,-1.5722950521712045,-0.31860350036935015
0.7350300469248263,-1.08589784407495,-1.5722950521712045
0.7350300469248263,-1.08589784407495,-0.31860350036935015
0.7350300469248263,-1.08589784407495,0.35972793060924
0.7350300469248263,-1.08589784407495,1.3603645814507137
0.7350300469248263,-1.08589784407495,-0.49512915313685185
0.7350300469248263,0.35972793060924,-1.5722950521712045
0.7350300469248263,0.35972793060924,-0.31860350036935015
0.7350300469248263,0.35972793060924,1.3603645814507137
0.7350300469248263,0.35972793060924,-0.49512915313685185
0.7350300469248263,1.3603645814507137,-1.5722950521712045
0.7350300469248263,1.3603645814507137,-0.31860350036935015
0.7350300469248263,1.3603645814507137,-0.49512915313685185
0.7350300469248263,-0.49512915313685185,-1.5722950521712045
0.7350300469248263,-0.49512915313685185,-0.31860350036935015
0.7350300469248263,-1.5722950521712045,-0.31860350036935015
-1.08589784407495,-1.5722950521712045,-0.31860350036935015
-1.08589784407495,0.35972793060924,-1.5722950521712045
-1.08589784407495,0.35972793060924,-0.31860350036935015
-1.08589784407495,0.35972793060924,1.3603645814507137
-1.08589784407495,0.35972793060924,-0.49512915313685185
-1.08589784407495,1.3603645814507137,-1.5722950521712045
-1.08589784407495,1.3603645814507137,-0.31860350036935015
-1.08589784407495,1.3603645814507137,-0.49512915313685185
-1.08589784407495,-0.49512915313685185,-1.5722950521712045
-1.08589784407495,-0.49512915313685185,-0.31860350036935015
0.35972793060924,-1.5722950521712045,-0.31860350036935015
0.35972793060924,1.3603645814507137,-1.5722950521712045
0.35972793060924,1.3603645814507137,-0.31860350036935015
0.35972793060924,1.3603645814507137,-0.49512915313685185
0.35972793060924,-0.49512915313685185,-1.5722950521712045
0.35972793060924,-0.49512915313685185,-0.31860350036935015
1.3603645814507137,-1.5722950521712045,-0.31860350036935015
1.3603645814507137,-0.49512915313685185,-1.5722950521712045
1.3603645814507137,-0.49512915313685185,-0.31860350036935015
-0.49512915313685185,-1.5722950521712045,-0.31860350036935015
