0,1,2
-1.2756203415998173,-0.7229083997429042,-0.20594556252712162
-1.2756203415998173,-0.7229083997429042,1.1345083535120877
-1.2756203415998173,-0.7229083997429042,1.8067923851041119
-1.2756203415998173,-0.7229083997429042,-0.9538485222227628
-1.2756203415998173,-0.7229083997429042,3.0586489301621484
-1.2756203415998173,-0.7229083997429042,4.3969221583837745
-1.2756203415998173,-0.7229083997429042,2.1926583160416904
-1.2756203415998173,-0.7229083997429042,-2.1083701641333463
-1.2756203415998173,-0.20594556252712162,1.1345083535120877
-1.2756203415998173,-0.20594556252712162,1.8067923851041119
-1.2756203415998173,-0.20594556252712162,-0.9538485222227628
-1.2756203415998173,-0.20594556252712162,3.0586489301621484
-1.2756203415998173,-0.20594556252712162,4.3969221583837745
-1.2756203415998173,-0.20594556252712162,2.1926583160416904
-1.2756203415998173,-0.20594556252712162,-2.1083701641333463
-1.2756203415998173,1.1345083535120877,1.8067923851041119
-1.2756203415998173,1.1345083535120877,-0.9538485222227628
-1.2756203415998173,1.1345083535120877,3.0586489301621484
-1.2756203415998173,1.1345083535120877,4.3969221583837745
-1.2756203415998173,1.1345083535120877,2.1926583160416904
-1.2756203415998173,1.1345083535120877,-2.1083701641333463
-1.2756203415998173,1.8067923851041119,2.1926583160416904
-1.2756203415998173,1.8067923851041119,-2.1083701641333463
-1.2756203415998173,1.8067923851041119,-0.9538485222227628
-1.2756203415998173,1.8067923851041119,3.0586489301621484
-1.2756203415998173,1.8067923851041119,4.3969221583837745
-1.2756203415998173,-0.9538485222227628,2.1926583160416904
-1.2756203415998173,-0.9538485222227628,-2.1083701641333463
-1.2756203415998173,-0.9538485222227628,3.0586489301621484
-1.2756203415998173,-0.9538485222227628,4.3969221583837745
-1.2756203415998173,3.0586489301621484,2.1926583160416904
-1.2756203415998173,3.0586489301621484,-2.1083701641333463
-1.2756203415998173,3.0586489301621484,4.3969221583837745
-1.2756203415998173,4.3969221583837745,2.1926583160416904
-1.2756203415998173,4.3969221583837745,-2.1083701641333463
-1.2756203415998173,2.1926583160416904,-2.1083701641333463
-0.7229083997429042,-0.20594556252712162,1.1345083535120877
-0.7229083997429042,-0.20594556252712162,1.8067923851041119
-0.7229083997429042,-0.20594556252712162,-0.9538485222227628
-0.7229083997429042,-0.20594556252712162,3.0586489301621484
-0.7229083997429042,-0.20594556252712162,4.3969221583837745
-0.7229083997429042,-0.20594556252712162,2.1926583160416904
-0.7229083997429042,-0.20594556252712162,-2.1083701641333463
-0.7229083997429042,1.1345083535120877,1.8067923851041119
-0.7229083997429042,1.1345083535120877,-0.9538485222227628
-0.7229083997429042,1.1345083535120877,3.0586489301621484
-0.7229083997429042,1.1345083535120877,4.3969221583837745
-0.7229083997429042,1.1345083535120877,2.1926583160416904
-0.7229083997429042,1.1345083535120877,-2.1083701641333463
-0.7229083997429042,1.8067923851041119,2.1926583160416904
-0.7229083997429042,1.8067923851041119,-2.1083701641333463
-0.7229083997429042,1.8067923851041119,-0.9538485222227628
-0.7229083997429042,1.8067923851041119,3.0586489301621484
-0.7229083997429042,1.8067923851041119,4.3969221583837745
-0.7229083997429042,-0.9538485222227628,2.1926583160416904
-0.7229083997429042,-0.9538485222227628,-2.1083701641333463
-0.7229083997429042,-0.9538485222227628,3.0586489301621484
-0.7229083997429042,-0.9538485222227628,4.3969221583837745
-0.7229083997429042,3.0586489301621484,2.1926583160416904
-0.7229083997429042,3.0586489301621484,-2.1083701641333463
-0.7229083997429042,3.0586489301621484,4.3969221583837745
-0.7229083997429042,4.3969221583837745,2.1926583160416904
-0.7229083997429042,4.3969221583837745,-2.1083701641333463
-0.7229083997429042,2.1926583160416904,-2.1083701641333463
-0.20594556252712162,1.1345083535120877,1.8067923851041119
-0.20594556252712162,1.1345083535120877,-0.9538485222227628
-0.20594556252712162,1.1345083535120877,3.0586489301621484
-0.20594556252712162,1.1345083535120877,4.3969221583837745
-0.20594556252712162,1.1345083535120877,2.1926583160416904
-0.20594556252712162,1.1345083535120877,-2.1083701641333463
-0.20594556252712162,1.8067923851041119,2.1926583160416904
-0.20594556252712162,1.8067923851041119,-2.1083701641333463
-0.20594556252712162,1.8067923851041119,-0.9538485222227628
-0.20594556252712162,1.8067923851041119,3.0586489301621484
-0.20594556252712162,1.8067923851041119,4.3969221583837745
-0.20594556252712162,-0.9538485222227628,2.1926583160416904
-0.20594556252712162,-0.9538485222227628,-2.1083701641333463
-0.20594556252712162,-0.9538485222227628,3.0586489301621484
-0.20594556252712162,-0.9538485222227628,4.3969221583837745
-0.20594556252712162,3.0586489301621484,2.1926583160416904
-0.20594556252712162,3.0586489301621484,-2.1083701641333463
-0.20594556252712162,3.0586489301621484,4.3969221583837745
-0.20594556252712162,4.3969221583837745,2.1926583160416904
-0.20594556252712162,4.3969221583837745,-2.1083701641333463
-0.20594556252712162,2.1926583160416904,-2.1083701641333463
1.1345083535120877,1.8067923851041119,2.1926583160416904
1.1345083535120877,1.8067923851041119,-2.1083701641333463
1.1345083535120877,1.8067923851041119,-0.9538485222227628
1.1345083535120877,1.8067923851041119,3.0586489301621484
1.1345083535120877,1.8067923851041119,4.3969221583837745
1.1345083535120877,-0.9538485222227628,2.1926583160416904
1.1345083535120877,-0.9538485222227628,-2.1083701641333463
1.1345083535120877,-0.9538485222227628,3.0586489301621484
1.1345083535120877,-0.9538485222227628,4.3969221583837745
1.1345083535120877,3.0586489301621484,2.1926583160416904
1.1345083535120877,3.0586489301621484,-2.1083701641333463
1.1345083535120877,3.0586489301621484,4.3969221583837745
1.1345083535120877,4.3969221583837745,2.1926583160416904
1.1345083535120877,4.3969221583837745,-2.1083701641333463
1.1345083535120877,2.1926583160416904,-2.1083701641333463
1.8067923851041119,2.1926583160416904,-2.1083701641333463
1.8067923851041119,-0.9538485222227628,2.1926583160416904
1.8067923851041119,-0.9538485222227628,-2.1083701641333463
1.8067923851041119,-0.9538485222227628,3.0586489301621484
1.8067923851041119,-0.9538485222227628,4.3969221583837745
1.8067923851041119,3.0586489301621484,2.1926583160416904
1.8067923851041119,3.0586489301621484,-2.1083701641333463
1.8067923851041119,3.0586489301621484,4.3969221583837745
1.8067923851041119,4.3969221583837745,2.1926583160416904
1.8067923851041119,4.3969221583837745,-2.1083701641333463
-0.9538485222227628,2.1926583160416904,-2.1083701641333463
-0.9538485222227628,3.0586489301621484,2.1926583160416904
-0.9538485222227628,3.0586489301621484,-2.1083701641333463
-0.9538485222227628,3.0586489301621484,4.3969221583837745
-0.9538485222227628,4.3969221583837745,2.1926583160416904
-0.9538485222227628,4.3969221583837745,-2.1083701641333463
3.0586489301621484,2.1926583160416904,-2.1083701641333463
3.0586489301621484,4.3969221583837745,2.1926583160416904
3.0586489301621484,4.3969221583837745,-2.1083701641333463
4.3969221583837745,2.1926583160416904,-2.1083701641333463
