0,1,2
2.1351088047075266,-1.3964008165112336,-1.0088183845298035
2.1351088047075266,-1.3964008165112336,-0.9146491430567417
2.1351088047075266,-1.3964008165112336,1.1422426748034222
2.1351088047075266,-1.3964008165112336,0.34815298374788045
2.1351088047075266,-1.3964008165112336,0.7485117330082813
2.1351088047075266,-1.3964008165112336,2.1297549341854833
2.1351088047075266,-1.3964008165112336,1.0792479105913924
2.1351088047075266,-1.3964008165112336,1.2332336988792854
2.1351088047075266,-1.0088183845298035,-0.9146491430567417
2.1351088047075266,-1.0088183845298035,1.1422426748034222
2.1351088047075266,-1.0088183845298035,0.34815298374788045
2.1351088047075266,-1.0088183845298035,0.7485117330082813
2.1351088047075266,-1.0088183845298035,2.1297549341854833
2.1351088047075266,-1.0088183845298035,1.0792479105913924
2.1351088047075266,-1.0088183845298035,1.2332336988792854
2.1351088047075266,-0.9146491430567417,1.1422426748034222
2.1351088047075266,-0.9146491430567417,0.34815298374788045
2.1351088047075266,-0.9146491430567417,0.7485117330082813
2.1351088047075266,-0.9146491430567417,2.1297549341854833
2.1351088047075266,-0.9146491430567417,1.0792479105913924
2.1351088047075266,-0.9146491430567417,1.2332336988792854
2.1351088047075266,1.1422426748034222,1.0792479105913924
2.1351088047075266,1.1422426748034222,1.2332336988792854
2.1351088047075266,1.1422426748034222,0.34815298374788045
2.1351088047075266,1.1422426748034222,0.7485117330082813
2.1351088047075266,1.1422426748034222,2.1297549341854833
2.1351088047075266,0.34815298374788045,1.0792479105913924
2.1351088047075266,0.34815298374788045,1.2332336988792854
2.1351088047075266,0.34815298374788045,0.7485117330082813
2.1351088047075266,0.34815298374788045,2.1297549341854833
2.1351088047075266,0.7485117330082813,1.0792479105913924
2.1351088047075266,0.7485117330082813,1.2332336988792854
2.1351088047075266,0.7485117330082813,2.1297549341854833
2.1351088047075266,2.1297549341854833,1.0792479105913924
2.1351088047075266,2.1297549341854833,1.2332336988792854
2.1351088047075266,1.0792479105913924,1.2332336988792854
-1.3964008165112336,-1.0088183845298035,-0.9146491430567417
-1.3964008165112336,-1.0088183845298035,1.1422426748034222
-1.3964008165112336,-1.0088183845298035,0.34815298374788045
-1.3964008165112336,-1.0088183845298035,0.7485117330082813
-1.3964008165112336,-1.0088183845298035,2.1297549341854833
-1.3964008165112336,-1.0088183845298035,1.0792479105913924
-1.3964008165112336,-1.0088183845298035,1.2332336988792854
-1.3964008165112336,-0.9146491430567417,1.1422426748034222
-1.3964008165112336,-0.9146491430567417,0.34815298374788045
-1.3964008165112336,-0.9146491430567417,0.7485117330082813
-1.3964008165112336,-0.9146491430567417,2.1297549341854833
-1.3964008165112336,-0.9146491430567417,1.0792479105913924
-1.3964008165112336,-0.9146491430567417,1.2332336988792854
-1.3964008165112336,1.1422426748034222,1.0792479105913924
-1.3964008165112336,1.1422426748034222,1.2332336988792854
-1.3964008165112336,1.1422426748034222,0.34815298374788045
-1.3964008165112336,1.1422426748034222,0.7485117330082813
-1.3964008165112336,1.1422426748034222,2.1297549341854833
-1.3964008165112336,0.34815298374788045,1.0792479105913924
-1.3964008165112336,0.34815298374788045,1.2332336988792854
-1.3964008165112336,0.34815298374788045,0.7485117330082813
-1.3964008165112336,0.34815298374788045,2.1297549341854833
-1.3964008165112336,0.7485117330082813,1.0792479105913924
-1.3964008165112336,0.7485117330082813,1.2332336988792854
-1.3964008165112336,0.7485117330082813,2.1297549341854833
-1.3964008165112336,2.1297549341854833,1.0792479105913924
-1.3964008165112336,2.1297549341854833,1.2332336988792854
-1.3964008165112336,1.0792479105913924,1.2332336988792854
-1.0088183845298035,-0.9146491430567417,1.1422426748034222
-1.0088183845298035,-0.9146491430567417,0.34815298374788045
-1.0088183845298035,-0.9146491430567417,0.7485117330082813
-1.0088183845298035,-0.9146491430567417,2.1297549341854833
-1.0088183845298035,-0.9146491430567417,1.0792479105913924
-1.0088183845298035,-0.9146491430567417,1.2332336988792854
-1.0088183845298035,1.1422426748034222,1.0792479105913924
-1.0088183845298035,1.1422426748034222,1.2332336988792854
-1.0088183845298035,1.1422426748034222,0.34815298374788045
-1.0088183845298035,1.1422426748034222,0.7485117330082813
-1.0088183845298035,1.1422426748034222,2.1297549341854833
-1.0088183845298035,0.34815298374788045,1.0792479105913924
-1.0088183845298035,0.34815298374788045,1.2332336988792854
-1.0088183845298035,0.34815298374788045,0.7485117330082813
-1.0088183845298035,0.34815298374788045,2.1297549341854833
-1.0088183845298035,0.7485117330082813,1.0792479105913924
-1.0088183845298035,0.7485117330082813,1.2332336988792854
-1.0088183845298035,0.7485117330082813,2.1297549341854833
-1.0088183845298035,2.1297549341854833,1.0792479105913924
-1.0088183845298035,2.1297549341854833,1.2332336988792854
-1.0088183845298035,1.0792479105913924,1.2332336988792854
-0.9146491430567417,1.1422426748034222,1.0792479105913924
-0.9146491430567417,1.1422426748034222,1.2332336988792854
-0.9146491430567417,1.1422426748034222,0.34815298374788045
-0.9146491430567417,1.1422426748034222,0.7485117330082813
-0.9146491430567417,1.1422426748034222,2.1297549341854833
-0.9146491430567417,0.34815298374788045,1.0792479105913924
-0.9146491430567417,0.34815298374788045,1.2332336988792854
-0.9146491430567417,0.34815298374788045,0.7485117330082813
-0.9146491430567417,0.34815298374788045,2.1297549341854833
-0.9146491430567417,0.7485117330082813,1.0792479105913924
-0.9146491430567417,0.7485117330082813,1.2332336988792854
-0.9146491430567417,0.7485117330082813,2.1297549341854833
-0.9146491430567417,2.1297549341854833,1.0792479105913924
-0.9146491430567417,2.1297549341854833,1.2332336988792854
-0.9146491430567417,1.0792479105913924,1.2332336988792854
1.1422426748034222,1.0792479105913924,1.2332336988792854
1.1422426748034222,0.34815298374788045,1.0792479105913924
1.1422426748034222,0.34815298374788045,1.2332336988792854
1.1422426748034222,0.34815298374788045,0.7485117330082813
1.1422426748034222,0.34815298374788045,2.1297549341854833
1.1422426748034222,0.7485117330082813,1.0792479105913924
1.1422426748034222,0.7485117330082813,1.2332336988792854
1.1422426748034222,0.7485117330082813,2.1297549341854833
1.1422426748034222,2.1297549341854833,1.0792479105913924
1.1422426748034222,2.1297549341854833,1.2332336988792854
0.34815298374788045,1.0792479105913924,1.2332336988792854
0.34815298374788045,0.7485117330082813,1.0792479105913924
0.34815298374788045,0.7485117330082813,1.2332336988792854
0.34815298374788045,0.7485117330082813,2.1297549341854833
0.34815298374788045,2.1297549341854833,1.0792479105913924
0.34815298374788045,2.1297549341854833,1.2332336988792854
0.7485117330082813,1.0792479105913924,1.2332336988792854
0.7485117330082813,2.1297549341854833,1.0792479105913924
0.7485117330082813,2.1297549341854833,1.2332336988792854
2.1297549341854833,1.0792479105913924,1.2332336988792854
