0,1,2
-0.5473225389662614,-0.35876138411835984,2.673437676337545
-0.5473225389662614,-0.35876138411835984,1.6067947425296107
-0.5473225389662614,-0.35876138411835984,2.827878718510151
-0.5473225389662614,-0.35876138411835984,-1.5565836296273285
-0.5473225389662614,-0.35876138411835984,2.780567422404152
-0.5473225389662614,-0.35876138411835984,-0.9419825372262305
-0.5473225389662614,-0.35876138411835984,-0.9921599687944644
-0.5473225389662614,-0.35876138411835984,3.5317850122511683
-0.5473225389662614,2.673437676337545,1.6067947425296107
-0.5473225389662614,2.673437676337545,2.827878718510151
-0.5473225389662614,2.673437676337545,-1.5565836296273285
-0.5473225389662614,2.673437676337545,2.780567422404152
-0.5473225389662614,2.673437676337545,-0.9419825372262305
-0.5473225389662614,2.673437676337545,-0.9921599687944644
-0.5473225389662614,2.673437676337545,3.5317850122511683
-0.5473225389662614,1.6067947425296107,2.827878718510151
-0.5473225389662614,1.6067947425296107,-1.5565836296273285
-0.5473225389662614,1.6067947425296107,2.780567422404152
-0.5473225389662614,1.6067947425296107,-0.9419825372262305
-0.5473225389662614,1.6067947425296107,-0.9921599687944644
-0.5473225389662614,1.6067947425296107,3.5317850122511683
-0.5473225389662614,2.827878718510151,-0.9921599687944644
-0.5473225389662614,2.827878718510151,3.5317850122511683
-0.5473225389662614,2.827878718510151,-1.5565836296273285
-0.5473225389662614,2.827878718510151,2.780567422404152
-0.5473225389662614,2.827878718510151,-0.9419825372262305
-0.5473225389662614,-1.5565836296273285,-0.9921599687944644
-0.5473225389662614,-1.5565836296273285,3.5317850122511683
-0.5473225389662614,-1.5565836296273285,2.780567422404152
-0.5473225389662614,-1.5565836296273285,-0.9419825372262305
-0.5473225389662614,2.780567422404152,-0.9921599687944644
-0.5473225389662614,2.780567422404152,3.5317850122511683
-0.5473225389662614,2.780567422404152,-0.9419825372262305
-0.5473225389662614,-0.9419825372262305,-0.9921599687944644
-0.5473225389662614,-0.9419825372262305,3.5317850122511683
-0.5473225389662614,-0.9921599687944644,3.5317850122511683
-0.35876138411835984,2.673437676337545,1.6067947425296107
-0.35876138411835984,2.673437676337545,2.827878718510151
-0.35876138411835984,2.673437676337545,-1.5565836296273285
-0.35876138411835984,2.673437676337545,2.780567422404152
-0.35876138411835984,2.673437676337545,-0.9419825372262305
-0.35876138411835984,2.673437676337545,-0.9921599687944644
-0.35876138411835984,2.673437676337545,3.5317850122511683
-0.35876138411835984,1.6067947425296107,2.827878718510151
-0.35876138411835984,1.6067947425296107,-1.5565836296273285
-0.35876138411835984,1.6067947425296107,2.780567422404152
-0.35876138411835984,1.6067947425296107,-0.9419825372262305
-0.35876138411835984,1.6067947425296107,-0.9921599687944644
-0.35876138411835984,1.6067947425296107,3.5317850122511683
-0.35876138411835984,2.827878718510151,-0.9921599687944644
-0.35876138411835984,2.827878718510151,3.5317850122511683
-0.35876138411835984,2.827878718510151,-1.5565836296273285
-0.35876138411835984,2.827878718510151,2.780567422404152
-0.35876138411835984,2.827878718510151,-0.9419825372262305
-0.35876138411835984,-1.5565836296273285,-0.9921599687944644
-0.35876138411835984,-1.5565836296273285,3.5317850122511683
-0.35876138411835984,-1.5565836296273285,2.780567422404152
-0.35876138411835984,-1.5565836296273285,-0.9419825372262305
-0.35876138411835984,2.780567422404152,-0.9921599687944644
-0.35876138411835984,2.780567422404152,3.5317850122511683
-0.35876138411835984,2.780567422404152,-0.9419825372262305
-0.35876138411835984,-0.9419825372262305,-0.9921599687944644
-0.35876138411835984,-0.9419825372262305,3.5317850122511683
-0.35876138411835984,-0.9921599687944644,3.5317850122511683
2.673437676337545,1.6067947425296107,2.827878718510151
2.673437676337545,1.6067947425296107,-1.5565836296273285
2.673437676337545,1.6067947425296107,2.780567422404152
2.673437676337545,1.6067947425296107,-0.9419825372262305
2.673437676337545,1.6067947425296107,-0.9921599687944644
2.673437676337545,1.6067947425296107,3.5317850122511683
2.673437676337545,2.827878718510151,-0.9921599687944644
2.673437676337545,2.827878718510151,3.5317850122511683
2.673437676337545,2.827878718510151,-1.5565836296273285
2.673437676337545,2.827878718510151,2.780567422404152
2.673437676337545,2.827878718510151,-0.9419825372262305
2.673437676337545,-1.5565836296273285,-0.9921599687944644
2.673437676337545,-1.5565836296273285,3.5317850122511683
2.673437676337545,-1.5565836296273285,2.780567422404152
2.673437676337545,-1.5565836296273285,-0.9419825372262305
2.673437676337545,2.780567422404152,-0.9921599687944644
2.673437676337545,2.780567422404152,3.5317850122511683
2.673437676337545,2.780567422404152,-0.9419825372262305
2.673437676337545,-0.9419825372262305,-0.9921599687944644
2.673437676337545,-0.9419825372262305,3.5317850122511683
2.673437676337545,-0.9921599687944644,3.5317850122511683
1.6067947425296107,2.827878718510151,-0.9921599687944644
1.6067947425296107,2.827878718510151,3.5317850122511683
1.6067947425296107,2.827878718510151,-1.5565836296273285
1.6067947425296107,2.827878718510151,2.780567422404152
1.6067947425296107,2.827878718510151,-0.9419825372262305
1.6067947425296107,-1.5565836296273285,-0.9921599687944644
1.6067947425296107,-1.5565836296273285,3.5317850122511683
1.6067947425296107,-1.5565836296273285,2.780567422404152
1.6067947425296107,-1.5565836296273285,-0.9419825372262305
1.6067947425296107,2.780567422404152,-0.9921599687944644
1.6067947425296107,2.780567422404152,3.5317850122511683
1.6067947425296107,2.780567422404152,-0.9419825372262305
1.6067947425296107,-0.9419825372262305,-0.9921599687944644
1.6067947425296107,-0.9419825372262305,3.5317850122511683
1.6067947425296107,-0.9921599687944644,3.5317850122511683
2.827878718510151,-0.9921599687944644,3.5317850122511683
2.827878718510151,-1.5565836296273285,-0.9921599687944644
2.827878718510151,-1.5565836296273285,3.5317850122511683
2.827878718510151,-1.5565836296273285,2.780567422404152
2.827878718510151,-1.5565836296273285,-0.9419825372262305
2.827878718510151,2.780567422404152,-0.9921599687944644
2.827878718510151,2.780567422404152,3.5317850122511683
2.827878718510151,2.780567422404152,-0.9419825372262305
2.827878718510151,-0.9419825372262305,-0.9921599687944644
2.827878718510151,-0.9419825372262305,3.5317850122511683
-1.5565836296273285,-0.9921599687944644,3.5317850122511683
-1.5565836296273285,2.780567422404152,-0.9921599687944644
-1.5565836296273285,2.780567422404152,3.5317850122511683
-1.5565836296273285,2.780567422404152,-0.9419825372262305
-1.5565836296273285,-0.9419825372262305,-0.9921599687944644
-1.5565836296273285,-0.9419825372262305,3.5317850122511683
2.780567422404152,-0.9921599687944644,3.5317850122511683
2.780567422404152,-0.9419825372262305,-0.9921599687944644
2.780567422404152,-0.9419825372262305,3.5317850122511683
-0.9419825372262305,-0.9921599687944644,3.5317850122511683
