0,1,2
-2.181971132216437,2.0872524479698678,-1.8751694970614052
-2.181971132216437,2.0872524479698678,3.3949492985968
-2.181971132216437,2.0872524479698678,-1.7370843201621264
-2.181971132216437,2.0872524479698678,0.659811499190751
-2.181971132216437,2.0872524479698678,0.6307623642941176
-2.181971132216437,2.0872524479698678,0.6879752192233409
-2.181971132216437,2.0872524479698678,3.0149314504920888
-2.181971132216437,2.0872524479698678,0.38204499654877994
-2.181971132216437,-1.8751694970614052,3.3949492985968
-2.181971132216437,-1.8751694970614052,-1.7370843201621264
-2.181971132216437,-1.8751694970614052,0.659811499190751
-2.181971132216437,-1.8751694970614052,0.6307623642941176
-2.181971132216437,-1.8751694970614052,0.6879752192233409
-2.181971132216437,-1.8751694970614052,3.0149314504920888
-2.181971132216437,-1.8751694970614052,0.38204499654877994
-2.181971132216437,3.3949492985968,-1.7370843201621264
-2.181971132216437,3.3949492985968,0.659811499190751
-2.181971132216437,3.3949492985968,0.6307623642941176
-2.181971132216437,3.3949492985968,0.6879752192233409
-2.181971132216437,3.3949492985968,3.0149314504920888
-2.181971132216437,3.3949492985968,0.38204499654877994
-2.181971132216437,-1.7370843201621264,3.0149314504920888
-2.181971132216437,-1.7370843201621264,0.38204499654877994
-2.181971132216437,-1.7370843201621264,0.659811499190751
-2.181971132216437,-1.7370843201621264,0.6307623642941176
-2.181971132216437,-1.7370843201621264,0.6879752192233409
-2.181971132216437,0.659811499190751,3.0149314504920888
-2.181971132216437,0.659811499190751,0.38204499654877994
-2.181971132216437,0.659811499190751,0.6307623642941176
-2.181971132216437,0.659811499190751,0.6879752192233409
-2.181971132216437,0.6307623642941176,3.0149314504920888
-2.181971132216437,0.6307623642941176,0.38204499654877994
-2.181971132216437,0.6307623642941176,0.6879752192233409
-2.181971132216437,0.6879752192233409,3.0149314504920888
-2.181971132216437,0.6879752192233409,0.38204499654877994
-2.181971132216437,3.0149314504920888,0.38204499654877994
2.0872524479698678,-1.8751694970614052,3.3949492985968
2.0872524479698678,-1.8751694970614052,-1.7370843201621264
2.0872524479698678,-1.8751694970614052,0.659811499190751
2.0872524479698678,-1.8751694970614052,0.6307623642941176
2.0872524479698678,-1.8751694970614052,0.6879752192233409
2.0872524479698678,-1.8751694970614052,3.0149314504920888
2.0872524479698678,-1.8751694970614052,0.38204499654877994
2.0872524479698678,3.3949492985968,-1.7370843201621264
2.0872524479698678,3.3949492985968,0.659811499190751
2.0872524479698678,3.3949492985968,0.6307623642941176
2.0872524479698678,3.3949492985968,0.6879752192233409
2.0872524479698678,3.3949492985968,3.0149314504920888
2.0872524479698678,3.3949492985968,0.38204499654877994
2.0872524479698678,-1.7370843201621264,3.0149314504920888
2.0872524479698678,-1.7370843201621264,0.38204499654877994
2.0872524479698678,-1.7370843201621264,0.659811499190751
2.0872524479698678,-1.7370843201621264,0.6307623642941176
2.0872524479698678,-1.7370843201621264,0.6879752192233409
2.0872524479698678,0.659811499190751,3.0149314504920888
2.0872524479698678,0.659811499190751,0.38204499654877994
2.0872524479698678,0.659811499190751,0.6307623642941176
2.0872524479698678,0.659811499190751,0.6879752192233409
2.0872524479698678,0.6307623642941176,3.0149314504920888
2.0872524479698678,0.6307623642941176,0.38204499654877994
2.0872524479698678,0.6307623642941176,0.6879752192233409
2.0872524479698678,0.6879752192233409,3.0149314504920888
2.0872524479698678,0.6879752192233409,0.38204499654877994
2.0872524479698678,3.0149314504920888,0.38204499654877994
-1.8751694970614052,3.3949492985968,-1.7370843201621264
-1.8751694970614052,3.3949492985968,0.659811499190751
-1.8751694970614052,3.3949492985968,0.6307623642941176
-1.8751694970614052,3.3949492985968,0.6879752192233409
-1.8751694970614052,3.3949492985968,3.0149314504920888
-1.8751694970614052,3.3949492985968,0.38204499654877994
-1.8751694970614052,-1.7370843201621264,3.0149314504920888
-1.8751694970614052,-1.7370843201621264,0.38204499654877994
-1.8751694970614052,-1.7370843201621264,0.659811499190751
-1.8751694970614052,-1.7370843201621264,0.6307623642941176
-1.8751694970614052,-1.7370843201621264,0.6879752192233409
-1.8751694970614052,0.659811499190751,3.0149314504920888
-1.8751694970614052,0.659811499190751,0.38204499654877994
-1.8751694970614052,0.659811499190751,0.6307623642941176
-1.8751694970614052,0.659811499190751,0.6879752192233409
-1.8751694970614052,0.6307623642941176,3.0149314504920888
-1.8751694970614052,0.6307623642941176,0.38204499654877994
-1.8751694970614052,0.6307623642941176,0.6879752192233409
-1.8751694970614052,0.6879752192233409,3.0149314504920888
-1.8751694970614052,0.6879752192233409,0.38204499654877994
-1.8751694970614052,3.0149314504920888,0.38204499654877994
3.3949492985968,-1.7370843201621264,3.0149314504920888
3.3949492985968,-1.7370843201621264,0.38204499654877994
3.3949492985968,-1.7370843201621264,0.659811499190751
3.3949492985968,-1.7370843201621264,0.6307623642941176
3.3949492985968,-1.7370843201621264,0.6879752192233409
3.3949492985968,0.659811499190751,3.0149314504920888
3.3949492985968,0.659811499190751,0.38204499654877994
3.3949492985968,0.659811499190751,0.6307623642941176
3.3949492985968,0.659811499190751,0.6879752192233409
3.3949492985968,0.6307623642941176,3.0149314504920888
3.3949492985968,0.6307623642941176,0.38204499654877994
3.3949492985968,0.6307623642941176,0.6879752192233409
3.3949492985968,0.6879752192233409,3.0149314504920888
3.3949492985968,0.6879752192233409,0.38204499654877994
3.3949492985968,3.0149314504920888,0.38204499654877994
-1.7370843201621264,3.0149314504920888,0.38204499654877994
-1.7370843201621264,0.659811499190751,3.0149314504920888
-1.7370843201621264,0.659811499190751,0.38204499654877994
-1.7370843201621264,0.659811499190751,0.6307623642941176
-1.7370843201621264,0.659811499190751,0.6879752192233409
-1.7370843201621264,0.6307623642941176,3.0149314504920888
-1.7370843201621264,0.6307623642941176,0.38204499654877994
-1.7370843201621264,0.6307623642941176,0.6879752192233409
-1.7370843201621264,0.6879752192233409,3.0149314504920888
-1.7370843201621264,0.6879752192233409,0.38204499654877994
0.659811499190751,3.0149314504920888,0.38204499654877994
0.659811499190751,0.6307623642941176,3.0149314504920888
0.659811499190751,0.6307623642941176,0.38204499654877994
0.659811499190751,0.6307623642941176,0.6879752192233409
0.659811499190751,0.6879752192233409,3.0149314504920888
0.659811499190751,0.6879752192233409,0.38204499654877994
0.6307623642941176,3.0149314504920888,0.38204499654877994
0.6307623642941176,0.6879752192233409,3.0149314504920888
0.6307623642941176,0.6879752192233409,0.38204499654877994
0.6879752192233409,3.0149314504920888,0.38204499654877994
