0,1,2
2.6875639252064287,-0.3533587761843654,-1.4544653006320272
2.6875639252064287,-0.3533587761843654,3.1683924909578876
2.6875639252064287,-0.3533587761843654,0.17350869495531562
2.6875639252064287,-0.3533587761843654,1.6619948452321
2.6875639252064287,-0.3533587761843654,-0.7672943814190717
2.6875639252064287,-0.3533587761843654,0.718933225605667
2.6875639252064287,-0.3533587761843654,1.0552138852889459
2.6875639252064287,-0.3533587761843654,-0.04325594947941806
2.6875639252064287,-1.4544653006320272,3.1683924909578876
2.6875639252064287,-1.4544653006320272,0.17350869495531562
2.6875639252064287,-1.4544653006320272,1.6619948452321
2.6875639252064287,-1.4544653006320272,-0.7672943814190717
2.6875639252064287,-1.4544653006320272,0.718933225605667
2.6875639252064287,-1.4544653006320272,1.0552138852889459
2.6875639252064287,-1.4544653006320272,-0.04325594947941806
2.6875639252064287,3.1683924909578876,0.17350869495531562
2.6875639252064287,3.1683924909578876,1.6619948452321
2.6875639252064287,3.1683924909578876,-0.7672943814190717
2.6875639252064287,3.1683924909578876,0.718933225605667
2.6875639252064287,3.1683924909578876,1.0552138852889459
2.6875639252064287,3.1683924909578876,-0.04325594947941806
2.6875639252064287,0.17350869495531562,1.0552138852889459
2.6875639252064287,0.17350869495531562,-0.04325594947941806
2.6875639252064287,0.17350869495531562,1.6619948452321
2.6875639252064287,0.17350869495531562,-0.7672943814190717
2.6875639252064287,0.17350869495531562,0.718933225605667
2.6875639252064287,1.6619948452321,1.0552138852889459
2.6875639252064287,1.6619948452321,-0.04325594947941806
2.6875639252064287,1.6619948452321,-0.7672943814190717
2.6875639252064287,1.6619948452321,0.718933225605667
2.6875639252064287,-0.7672943814190717,1.0552138852889459
2.6875639252064287,-0.7672943814190717,-0.04325594947941806
2.6875639252064287,-0.7672943814190717,0.718933225605667
2.6875639252064287,0.718933225605667,1.0552138852889459
2.6875639252064287,0.718933225605667,-0.04325594947941806
2.6875639252064287,1.0552138852889459,-0.04325594947941806
-0.3533587761843654,-1.4544653006320272,3.1683924909578876
-0.3533587761843654,-1.4544653006320272,0.17350869495531562
-0.3533587761843654,-1.4544653006320272,1.6619948452321
-0.3533587761843654,-1.4544653006320272,-0.7672943814190717
-0.3533587761843654,-1.4544653006320272,0.718933225605667
-0.3533587761843654,-1.4544653006320272,1.0552138852889459
-0.3533587761843654,-1.4544653006320272,-0.04325594947941806
-0.3533587761843654,3.1683924909578876,0.17350869495531562
-0.3533587761843654,3.1683924909578876,1.6619948452321
-0.3533587761843654,3.1683924909578876,-0.7672943814190717
-0.3533587761843654,3.1683924909578876,0.718933225605667
-0.3533587761843654,3.1683924909578876,1.0552138852889459
-0.3533587761843654,3.1683924909578876,-0.04325594947941806
-0.3533587761843654,0.17350869495531562,1.0552138852889459
-0.3533587761843654,0.17350869495531562,-0.04325594947941806
-0.3533587761843654,0.17350869495531562,1.6619948452321
-0.3533587761843654,0.17350869495531562,-0.7672943814190717
-0.3533587761843654,0.17350869495531562,0.718933225605667
-0.3533587761843654,1.6619948452321,1.0552138852889459
-0.3533587761843654,1.6619948452321,-0.04325594947941806
-0.3533587761843654,1.6619948452321,-0.7672943814190717
-0.3533587761843654,1.6619948452321,0.718933225605667
-0.3533587761843654,-0.7672943814190717,1.0552138852889459
-0.3533587761843654,-0.7672943814190717,-0.04325594947941806
-0.3533587761843654,-0.7672943814190717,0.718933225605667
-0.3533587761843654,0.718933225605667,1.0552138852889459
-0.3533587761843654,0.718933225605667,-0.04325594947941806
-0.3533587761843654,1.0552138852889459,-0.04325594947941806
-1.4544653006320272,3.1683924909578876,0.17350869495531562
-1.4544653006320272,3.1683924909578876,1.6619948452321
-1.4544653006320272,3.1683924909578876,-0.7672943814190717
-1.4544653006320272,3.1683924909578876,0.718933225605667
-1.4544653006320272,3.1683924909578876,1.0552138852889459
-1.4544653006320272,3.1683924909578876,-0.04325594947941806
-1.4544653006320272,0.17350869495531562,1.0552138852889459
-1.4544653006320272,0.17350869495531562,-0.04325594947941806
-1.4544653006320272,0.17350869495531562,1.6619948452321
-1.4544653006320272,0.17350869495531562,-0.7672943814190717
-1.4544653006320272,0.17350869495531562,0.718933225605667
-1.4544653006320272,1.6619948452321,1.0552138852889459
-1.4544653006320272,1.6619948452321,-0.04325594947941806
-1.4544653006320272,1.6619948452321,-0.7672943814190717
-1.4544653006320272,1.6619948452321,0.718933225605667
-1.4544653006320272,-0.7672943814190717,1.0552138852889459
-1.4544653006320272,-0.7672943814190717,-0.04325594947941806
-1.4544653006320272,-0.7672943814190717,0.718933225605667
-1.4544653006320272,0.718933225605667,1.0552138852889459
-1.4544653006320272,0.718933225605667,-0.04325594947941806
-1.4544653006320272,1.0552138852889459,-0.04325594947941806
3.1683924909578876,0.17350869495531562,1.0552138852889459
3.1683924909578876,0.17350869495531562,-0.04325594947941806
3.1683924909578876,0.17350869495531562,1.6619948452321
3.1683924909578876,0.17350869495531562,-0.7672943814190717
3.1683924909578876,0.17350869495531562,0.718933225605667
3.1683924909578876,1.6619948452321,1.0552138852889459
3.1683924909578876,1.6619948452321,-0.04325594947941806
3.1683924909578876,1.6619948452321,-0.7672943814190717
3.1683924909578876,1.6619948452321,0.718933225605667
3.1683924909578876,-0.7672943814190717,1.0552138852889459
3.1683924909578876,-0.7672943814190717,-0.04325594947941806
3.1683924909578876,-0.7672943814190717,0.718933225605667
3.1683924909578876,0.718933225605667,1.0552138852889459
3.1683924909578876,0.718933225605667,-0.04325594947941806
3.1683924909578876,1.0552138852889459,-0.04325594947941806
0.17350869495531562,1.0552138852889459,-0.04325594947941806
0.17350869495531562,1.6619948452321,1.0552138852889459
0.17350869495531562,1.6619948452321,-0.04325594947941806
0.17350869495531562,1.6619948452321,-0.7672943814190717
0.17350869495531562,1.6619948452321,0.718933225605667
0.17350869495531562,-0.7672943814190717,1.0552138852889459
0.17350869495531562,-0.7672943814190717,-0.04325594947941806
0.17350869495531562,-0.7672943814190717,0.718933225605667
0.17350869495531562,0.718933225605667,1.0552138852889459
0.17350869495531562,0.718933225605667,-0.04325594947941806
1.6619948452321,1.0552138852889459,-0.04325594947941806
1.6619948452321,-0.7672943814190717,1.0552138852889459
1.6619948452321,-0.7672943814190717,-0.04325594947941806
1.6619948452321,-0.7672943814190717,0.718933225605667
1.6619948452321,0.718933225605667,1.0552138852889459
1.6619948452321,0.718933225605667,-0.04325594947941806
-0.7672943814190717,1.0552138852889459,-0.04325594947941806
-0.7672943814190717,0.718933225605667,1.0552138852889459
-0.7672943814190717,0.718933225605667,-0.04325594947941806
0.718933225605667,1.0552138852889459,-0.04325594947941806
