0,1,2
2.4886150024692464,-0.5352575521632706,-1.4790338773904614
2.4886150024692464,-0.5352575521632706,1.429145672627722
2.4886150024692464,-0.5352575521632706,1.5394002442660546
2.4886150024692464,-0.5352575521632706,0.6816654108192275
2.4886150024692464,-0.5352575521632706,1.2292414293302358
2.4886150024692464,-0.5352575521632706,0.7941750613052111
2.4886150024692464,-0.5352575521632706,2.803985347798653
2.4886150024692464,-0.5352575521632706,0.012580613002272463
2.4886150024692464,-1.4790338773904614,1.429145672627722
2.4886150024692464,-1.4790338773904614,1.5394002442660546
2.4886150024692464,-1.4790338773904614,0.6816654108192275
2.4886150024692464,-1.4790338773904614,1.2292414293302358
2.4886150024692464,-1.4790338773904614,0.7941750613052111
2.4886150024692464,-1.4790338773904614,2.803985347798653
2.4886150024692464,-1.4790338773904614,0.012580613002272463
2.4886150024692464,1.429145672627722,1.5394002442660546
2.4886150024692464,1.429145672627722,0.6816654108192275
2.4886150024692464,1.429145672627722,1.2292414293302358
2.4886150024692464,1.429145672627722,0.7941750613052111
2.4886150024692464,1.429145672627722,2.803985347798653
2.4886150024692464,1.429145672627722,0.012580613002272463
2.4886150024692464,1.5394002442660546,2.803985347798653
2.4886150024692464,1.5394002442660546,0.012580613002272463
2.4886150024692464,1.5394002442660546,0.6816654108192275
2.4886150024692464,1.5394002442660546,1.2292414293302358
2.4886150024692464,1.5394002442660546,0.7941750613052111
2.4886150024692464,0.6816654108192275,2.803985347798653
2.4886150024692464,0.6816654108192275,0.012580613002272463
2.4886150024692464,0.6816654108192275,1.2292414293302358
2.4886150024692464,0.6816654108192275,0.7941750613052111
2.4886150024692464,1.2292414293302358,2.803985347798653
2.4886150024692464,1.2292414293302358,0.012580613002272463
2.4886150024692464,1.2292414293302358,0.7941750613052111
2.4886150024692464,0.7941750613052111,2.803985347798653
2.4886150024692464,0.7941750613052111,0.012580613002272463
2.4886150024692464,2.803985347798653,0.012580613002272463
-0.5352575521632706,-1.4790338773904614,1.429145672627722
-0.5352575521632706,-1.4790338773904614,1.5394002442660546
-0.5352575521632706,-1.4790338773904614,0.6816654108192275
-0.5352575521632706,-1.4790338773904614,1.2292414293302358
-0.5352575521632706,-1.4790338773904614,0.7941750613052111
-0.5352575521632706,-1.4790338773904614,2.803985347798653
-0.5352575521632706,-1.4790338773904614,0.012580613002272463
-0.5352575521632706,1.429145672627722,1.5394002442660546
-0.5352575521632706,1.429145672627722,0.6816654108192275
-0.5352575521632706,1.429145672627722,1.2292414293302358
-0.5352575521632706,1.429145672627722,0.7941750613052111
-0.5352575521632706,1.429145672627722,2.803985347798653
-0.5352575521632706,1.429145672627722,0.012580613002272463
-0.5352575521632706,1.5394002442660546,2.803985347798653
-0.5352575521632706,1.5394002442660546,0.012580613002272463
-0.5352575521632706,1.5394002442660546,0.6816654108192275
-0.5352575521632706,1.5394002442660546,1.2292414293302358
-0.5352575521632706,1.5394002442660546,0.7941750613052111
-0.5352575521632706,0.6816654108192275,2.803985347798653
-0.5352575521632706,0.6816654108192275,0.012580613002272463
-0.5352575521632706,0.6816654108192275,1.2292414293302358
-0.5352575521632706,0.6816654108192275,0.7941750613052111
-0.5352575521632706,1.2292414293302358,2.803985347798653
-0.5352575521632706,1.2292414293302358,0.012580613002272463
-0.5352575521632706,1.2292414293302358,0.7941750613052111
-0.5352575521632706,0.7941750613052111,2.803985347798653
-0.5352575521632706,0.7941750613052111,0.012580613002272463
-0.5352575521632706,2.803985347798653,0.012580613002272463
-1.4790338773904614,1.429145672627722,1.5394002442660546
-1.4790338773904614,1.429145672627722,0.6816654108192275
-1.4790338773904614,1.429145672627722,1.2292414293302358
-1.4790338773904614,1.429145672627722,0.7941750613052111
-1.4790338773904614,1.429145672627722,2.803985347798653
-1.4790338773904614,1.429145672627722,0.012580613002272463
-1.4790338773904614,1.5394002442660546,2.803985347798653
-1.4790338773904614,1.5394002442660546,0.012580613002272463
-1.4790338773904614,1.5394002442660546,0.6816654108192275
-1.4790338773904614,1.5394002442660546,1.2292414293302358
-1.4790338773904614,1.5394002442660546,0.7941750613052111
-1.4790338773904614,0.6816654108192275,2.803985347798653
-1.4790338773904614,0.6816654108192275,0.012580613002272463
-1.4790338773904614,0.6816654108192275,1.2292414293302358
-1.4790338773904614,0.6816654108192275,0.7941750613052111
-1.4790338773904614,1.2292414293302358,2.803985347798653
-1.4790338773904614,1.2292414293302358,0.012580613002272463
-1.4790338773904614,1.2292414293302358,0.7941750613052111
-1.4790338773904614,0.7941750613052111,2.803985347798653
-1.4790338773904614,0.7941750613052111,0.012580613002272463
-1.4790338773904614,2.803985347798653,0.012580613002272463
1.429145672627722,1.5394002442660546,2.803985347798653
1.429145672627722,1.5394002442660546,0.012580613002272463
1.429145672627722,1.5394002442660546,0.6816654108192275
1.429145672627722,1.5394002442660546,1.2292414293302358
1.429145672627722,1.5394002442660546,0.7941750613052111
1.429145672627722,0.6816654108192275,2.803985347798653
1.429145672627722,0.6816654108192275,0.012580613002272463
1.429145672627722,0.6816654108192275,1.2292414293302358
1.429145672627722,0.6816654108192275,0.7941750613052111
1.429145672627722,1.2292414293302358,2.803985347798653
1.429145672627722,1.2292414293302358,0.012580613002272463
1.429145672627722,1.2292414293302358,0.7941750613052111
1.429145672627722,0.7941750613052111,2.803985347798653
1.429145672627722,0.7941750613052111,0.012580613002272463
1.429145672627722,2.803985347798653,0.012580613002272463
1.5394002442660546,2.803985347798653,0.012580613002272463
1.5394002442660546,0.6816654108192275,2.803985347798653
1.5394002442660546,0.6816654108192275,0.012580613002272463
1.5394002442660546,0.6816654108192275,1.2292414293302358
1.5394002442660546,0.6816654108192275,0.7941750613052111
1.5394002442660546,1.2292414293302358,2.803985347798653
1.5394002442660546,1.2292414293302358,0.012580613002272463
1.5394002442660546,1.2292414293302358,0.7941750613052111
1.5394002442660546,0.7941750613052111,2.803985347798653
1.5394002442660546,0.7941750613052111,0.012580613002272463
0.6816654108192275,2.803985347798653,0.012580613002272463
0.6816654108192275,1.2292414293302358,2.803985347798653
0.6816654108192275,1.2292414293302358,0.012580613002272463
0.6816654108192275,1.2292414293302358,0.7941750613052111
0.6816654108192275,0.7941750613052111,2.803985347798653
0.6816654108192275,0.7941750613052111,0.012580613002272463
1.2292414293302358,2.803985347798653,0.012580613002272463
1.2292414293302358,0.7941750613052111,2.803985347798653
1.2292414293302358,0.7941750613052111,0.012580613002272463
0.7941750613052111,2.803985347798653,0.012580613002272463
