0,1,2
2.3586907395845644,-0.2825486368236506,-1.569194159882826
2.3586907395845644,-0.2825486368236506,1.5016061070463254
2.3586907395845644,-0.2825486368236506,-0.15888234763468292
2.3586907395845644,-0.2825486368236506,3.6946523155233395
2.3586907395845644,-0.2825486368236506,3.136107210720712
2.3586907395845644,-0.2825486368236506,1.0916212837485255
2.3586907395845644,-0.2825486368236506,-3.7217606513682004
2.3586907395845644,-0.2825486368236506,-0.09636901372277372
2.3586907395845644,-1.569194159882826,1.5016061070463254
2.3586907395845644,-1.569194159882826,-0.15888234763468292
2.3586907395845644,-1.569194159882826,3.6946523155233395
2.3586907395845644,-1.569194159882826,3.136107210720712
2.3586907395845644,-1.569194159882826,1.0916212837485255
2.3586907395845644,-1.569194159882826,-3.7217606513682004
2.3586907395845644,-1.569194159882826,-0.09636901372277372
2.3586907395845644,1.5016061070463254,-0.15888234763468292
2.3586907395845644,1.5016061070463254,3.6946523155233395
2.3586907395845644,1.5016061070463254,3.136107210720712
2.3586907395845644,1.5016061070463254,1.0916212837485255
2.3586907395845644,1.5016061070463254,-3.7217606513682004
2.3586907395845644,1.5016061070463254,-0.09636901372277372
2.3586907395845644,-0.15888234763468292,-3.7217606513682004
2.3586907395845644,-0.15888234763468292,-0.09636901372277372
2.3586907395845644,-0.15888234763468292,3.6946523155233395
2.3586907395845644,-0.15888234763468292,3.136107210720712
2.3586907395845644,-0.15888234763468292,1.0916212837485255
2.3586907395845644,3.6946523155233395,-3.7217606513682004
2.3586907395845644,3.6946523155233395,-0.09636901372277372
2.3586907395845644,3.6946523155233395,3.136107210720712
2.3586907395845644,3.6946523155233395,1.0916212837485255
2.3586907395845644,3.136107210720712,-3.7217606513682004
2.3586907395845644,3.136107210720712,-0.09636901372277372
2.3586907395845644,3.136107210720712,1.0916212837485255
2.3586907395845644,1.0916212837485255,-3.7217606513682004
2.3586907395845644,1.0916212837485255,-0.09636901372277372
2.3586907395845644,-3.7217606513682004,-0.09636901372277372
-0.2825486368236506,-1.569194159882826,1.5016061070463254
-0.2825486368236506,-1.569194159882826,-0.15888234763468292
-0.2825486368236506,-1.569194159882826,3.6946523155233395
-0.2825486368236506,-1.569194159882826,3.136107210720712
-0.2825486368236506,-1.569194159882826,1.0916212837485255
-0.2825486368236506,-1.569194159882826,-3.7217606513682004
-0.2825486368236506,-1.569194159882826,-0.09636901372277372
-0.2825486368236506,1.5016061070463254,-0.15888234763468292
-0.2825486368236506,1.5016061070463254,3.6946523155233395
-0.2825486368236506,1.5016061070463254,3.136107210720712
-0.2825486368236506,1.5016061070463254,1.0916212837485255
-0.2825486368236506,1.5016061070463254,-3.7217606513682004
-0.2825486368236506,1.5016061070463254,-0.09636901372277372
-0.2825486368236506,-0.15888234763468292,-3.7217606513682004
-0.2825486368236506,-0.15888234763468292,-0.09636901372277372
-0.2825486368236506,-0.15888234763468292,3.6946523155233395
-0.2825486368236506,-0.15888234763468292,3.136107210720712
-0.2825486368236506,-0.15888234763468292,1.0916212837485255
-0.2825486368236506,3.6946523155233395,-3.7217606513682004
-0.2825486368236506,3.6946523155233395,-0.09636901372277372
-0.2825486368236506,3.6946523155233395,3.136107210720712
-0.2825486368236506,3.6946523155233395,1.0916212837485255
-0.2825486368236506,3.136107210720712,-3.7217606513682004
-0.2825486368236506,3.136107210720712,-0.09636901372277372
-0.2825486368236506,3.136107210720712,1.0916212837485255
-0.2825486368236506,1.0916212837485255,-3.7217606513682004
-0.2825486368236506,1.0916212837485255,-0.09636901372277372
-0.2825486368236506,-3.7217606513682004,-0.09636901372277372
-1.569194159882826,1.5016061070463254,-0.15888234763468292
-1.569194159882826,1.5016061070463254,3.6946523155233395
-1.569194159882826,1.5016061070463254,3.136107210720712
-1.569194159882826,1.5016061070463254,1.0916212837485255
-1.569194159882826,1.5016061070463254,-3.7217606513682004
-1.569194159882826,1.5016061070463254,-0.09636901372277372
-1.569194159882826,-0.15888234763468292,-3.7217606513682004
-1.569194159882826,-0.15888234763468292,-0.09636901372277372
-1.569194159882826,-0.15888234763468292,3.6946523155233395
-1.569194159882826,-0.15888234763468292,3.136107210720712
-1.569194159882826,-0.15888234763468292,1.0916212837485255
-1.569194159882826,3.6946523155233395,-3.7217606513682004
-1.569194159882826,3.6946523155233395,-0.09636901372277372
-1.569194159882826,3.6946523155233395,3.136107210720712
-1.569194159882826,3.6946523155233395,1.0916212837485255
-1.569194159882826,3.136107210720712,-3.7217606513682004
-1.569194159882826,3.136107210720712,-0.09636901372277372
-1.569194159882826,3.136107210720712,1.0916212837485255
-1.569194159882826,1.0916212837485255,-3.7217606513682004
-1.569194159882826,1.0916212837485255,-0.09636901372277372
-1.569194159882826,-3.7217606513682004,-0.09636901372277372
1.5016061070463254,-0.15888234763468292,-3.7217606513682004
1.5016061070463254,-0.15888234763468292,-0.09636901372277372
1.5016061070463254,-0.15888234763468292,3.6946523155233395
1.5016061070463254,-0.15888234763468292,3.136107210720712
1.5016061070463254,-0.15888234763468292,1.0916212837485255
1.5016061070463254,3.6946523155233395,-3.7217606513682004
1.5016061070463254,3.6946523155233395,-0.09636901372277372
1.5016061070463254,3.6946523155233395,3.136107210720712
1.5016061070463254,3.6946523155233395,1.0916212837485255
1.5016061070463254,3.136107210720712,-3.7217606513682004
1.5016061070463254,3.136107210720712,-0.09636901372277372
1.5016061070463254,3.136107210720712,1.0916212837485255
1.5016061070463254,1.0916212837485255,-3.7217606513682004
1.5016061070463254,1.0916212837485255,-0.09636901372277372
1.5016061070463254,-3.7217606513682004,-0.09636901372277372
-0.15888234763468292,-3.7217606513682004,-0.09636901372277372
-0.15888234763468292,3.6946523155233395,-3.7217606513682004
-0.15888234763468292,3.6946523155233395,-0.09636901372277372
-0.15888234763468292,3.6946523155233395,3.136107210720712
-0.15888234763468292,3.6946523155233395,1.0916212837485255
-0.15888234763468292,3.136107210720712,-3.7217606513682004
-0.15888234763468292,3.136107210720712,-0.09636901372277372
-0.15888234763468292,3.136107210720712,1.0916212837485255
-0.15888234763468292,1.0916212837485255,-3.7217606513682004
-0.15888234763468292,1.0916212837485255,-0.09636901372277372
3.6946523155233395,-3.7217606513682004,-0.09636901372277372
3.6946523155233395,3.136107210720712,-3.7217606513682004
3.6946523155233395,3.136107210720712,-0.09636901372277372
3.6946523155233395,3.136107210720712,1.0916212837485255
3.6946523155233395,1.0916212837485255,-3.7217606513682004
3.6946523155233395,1.0916212837485255,-0.09636901372277372
3.136107210720712,-3.7217606513682004,-0.09636901372277372
3.136107210720712,1.0916212837485255,-3.7217606513682004
3.136107210720712,1.0916212837485255,-0.09636901372277372
1.0916212837485255,-3.7217606513682004,-0.09636901372277372
