0,1,2
1.9848497526140032,-0.5744301245215232,-0.898496173274924
1.9848497526140032,-0.5744301245215232,0.2610464897602766
1.9848497526140032,-0.5744301245215232,2.139395342423846
1.9848497526140032,-0.5744301245215232,0.7220269671412671
1.9848497526140032,-0.5744301245215232,-0.7902264140972728
1.9848497526140032,-0.5744301245215232,-4.3071121710847535
1.9848497526140032,-0.5744301245215232,-2.77613963035869
1.9848497526140032,-0.5744301245215232,-1.7063160974434712
1.9848497526140032,-0.898496173274924,0.2610464897602766
1.9848497526140032,-0.898496173274924,2.139395342423846
1.9848497526140032,-0.898496173274924,0.7220269671412671
1.9848497526140032,-0.898496173274924,-0.7902264140972728
1.9848497526140032,-0.898496173274924,-4.3071121710847535
1.9848497526140032,-0.898496173274924,-2.77613963035869
1.9848497526140032,-0.898496173274924,-1.7063160974434712
1.9848497526140032,0.2610464897602766,2.139395342423846
1.9848497526140032,0.2610464897602766,0.7220269671412671
1.9848497526140032,0.2610464897602766,-0.7902264140972728
1.9848497526140032,0.2610464897602766,-4.3071121710847535
1.9848497526140032,0.2610464897602766,-2.77613963035869
1.9848497526140032,0.2610464897602766,-1.7063160974434712
1.9848497526140032,2.139395342423846,-2.77613963035869
1.9848497526140032,2.139395342423846,-1.7063160974434712
1.9848497526140032,2.139395342423846,0.7220269671412671
1.9848497526140032,2.139395342423846,-0.7902264140972728
1.9848497526140032,2.139395342423846,-4.3071121710847535
1.9848497526140032,0.7220269671412671,-2.77613963035869
1.9848497526140032,0.7220269671412671,-1.7063160974434712
1.9848497526140032,0.7220269671412671,-0.7902264140972728
1.9848497526140032,0.7220269671412671,-4.3071121710847535
1.9848497526140032,-0.7902264140972728,-2.77613963035869
1.9848497526140032,-0.7902264140972728,-1.7063160974434712
1.9848497526140032,-0.7902264140972728,-4.3071121710847535
1.9848497526140032,-4.3071121710847535,-2.77613963035869
1.9848497526140032,-4.3071121710847535,-1.7063160974434712
1.9848497526140032,-2.77613963035869,-1.7063160974434712
-0.5744301245215232,-0.898496173274924,0.2610464897602766
-0.5744301245215232,-0.898496173274924,2.139395342423846
-0.5744301245215232,-0.898496173274924,0.7220269671412671
-0.5744301245215232,-0.898496173274924,-0.7902264140972728
-0.5744301245215232,-0.898496173274924,-4.3071121710847535
-0.5744301245215232,-0.898496173274924,-2.77613963035869
-0.5744301245215232,-0.898496173274924,-1.7063160974434712
-0.5744301245215232,0.2610464897602766,2.139395342423846
-0.5744301245215232,0.2610464897602766,0.7220269671412671
-0.5744301245215232,0.2610464897602766,-0.7902264140972728
-0.5744301245215232,0.2610464897602766,-4.3071121710847535
-0.5744301245215232,0.2610464897602766,-2.77613963035869
-0.5744301245215232,0.2610464897602766,-1.7063160974434712
-0.5744301245215232,2.139395342423846,-2.77613963035869
-0.5744301245215232,2.139395342423846,-1.7063160974434712
-0.5744301245215232,2.139395342423846,0.7220269671412671
-0.5744301245215232,2.139395342423846,-0.7902264140972728
-0.5744301245215232,2.139395342423846,-4.3071121710847535
-0.5744301245215232,0.7220269671412671,-2.77613963035869
-0.5744301245215232,0.7220269671412671,-1.7063160974434712
-0.5744301245215232,0.7220269671412671,-0.7902264140972728
-0.5744301245215232,0.7220269671412671,-4.3071121710847535
-0.5744301245215232,-0.7902264140972728,-2.77613963035869
-0.5744301245215232,-0.7902264140972728,-1.7063160974434712
-0.5744301245215232,-0.7902264140972728,-4.3071121710847535
-0.5744301245215232,-4.3071121710847535,-2.77613963035869
-0.5744301245215232,-4.3071121710847535,-1.7063160974434712
-0.5744301245215232,-2.77613963035869,-1.7063160974434712
-0.898496173274924,0.2610464897602766,2.139395342423846
-0.898496173274924,0.2610464897602766,0.7220269671412671
-0.898496173274924,0.2610464897602766,-0.7902264140972728
-0.898496173274924,0.2610464897602766,-4.3071121710847535
-0.898496173274924,0.2610464897602766,-2.77613963035869
-0.898496173274924,0.2610464897602766,-1.7063160974434712
-0.898496173274924,2.139395342423846,-2.77613963035869
-0.898496173274924,2.139395342423846,-1.7063160974434712
-0.898496173274924,2.139395342423846,0.7220269671412671
-0.898496173274924,2.139395342423846,-0.7902264140972728
-0.898496173274924,2.139395342423846,-4.3071121710847535
-0.898496173274924,0.7220269671412671,-2.77613963035869
-0.898496173274924,0.7220269671412671,-1.7063160974434712
-0.898496173274924,0.7220269671412671,-0.7902264140972728
-0.898496173274924,0.7220269671412671,-4.3071121710847535
-0.898496173274924,-0.7902264140972728,-2.77613963035869
-0.898496173274924,-0.7902264140972728,-1.7063160974434712
-0.898496173274924,-0.7902264140972728,-4.3071121710847535
-0.898496173274924,-4.3071121710847535,-2.77613963035869
-0.898496173274924,-4.3071121710847535,-1.7063160974434712
-0.898496173274924,-2.77613963035869,-1.7063160974434712
0.2610464897602766,2.139395342423846,-2.77613963035869
0.2610464897602766,2.139395342423846,-1.7063160974434712
0.2610464897602766,2.139395342423846,0.7220269671412671
0.2610464897602766,2.139395342423846,-0.7902264140972728
0.2610464897602766,2.139395342423846,-4.3071121710847535
0.2610464897602766,0.7220269671412671,-2.77613963035869
0.2610464897602766,0.7220269671412671,-1.7063160974434712
0.2610464897602766,0.7220269671412671,-0.7902264140972728
0.2610464897602766,0.7220269671412671,-4.3071121710847535
0.2610464897602766,-0.7902264140972728,-2.77613963035869
0.2610464897602766,-0.7902264140972728,-1.7063160974434712
0.2610464897602766,-0.7902264140972728,-4.3071121710847535
0.2610464897602766,-4.3071121710847535,-2.77613963035869
0.2610464897602766,-4.3071121710847535,-1.7063160974434712
0.2610464897602766,-2.77613963035869,-1.7063160974434712
2.139395342423846,-2.77613963035869,-1.7063160974434712
2.139395342423846,0.7220269671412671,-2.77613963035869
2.139395342423846,0.7220269671412671,-1.7063160974434712
2.139395342423846,0.7220269671412671,-0.7902264140972728
2.139395342423846,0.7220269671412671,-4.3071121710847535
2.139395342423846,-0.7902264140972728,-2.77613963035869
2.139395342423846,-0.7902264140972728,-1.7063160974434712
2.139395342423846,-0.7902264140972728,-4.3071121710847535
2.139395342423846,-4.3071121710847535,-2.77613963035869
2.139395342423846,-4.3071121710847535,-1.7063160974434712
0.7220269671412671,-2.77613963035869,-1.7063160974434712
0.7220269671412671,-0.7902264140972728,-2.77613963035869
0.7220269671412671,-0.7902264140972728,-1.7063160974434712
0.7220269671412671,-0.7902264140972728,-4.3071121710847535
0.7220269671412671,-4.3071121710847535,-2.77613963035869
0.7220269671412671,-4.3071121710847535,-1.7063160974434712
-0.7902264140972728,-2.77613963035869,-1.7063160974434712
-0.7902264140972728,-4.3071121710847535,-2.77613963035869
-0.7902264140972728,-4.3071121710847535,-1.7063160974434712
-4.3071121710847535,-2.77613963035869,-1.7063160974434712
