0,1,2
-1.067919448707167,3.9337759978013995,0.7614090936578962
-1.067919448707167,3.9337759978013995,2.323720510008487
-1.067919448707167,3.9337759978013995,-2.339622992972174
-1.067919448707167,3.9337759978013995,2.106492924439896
-1.067919448707167,3.9337759978013995,-0.21261067500730962
-1.067919448707167,3.9337759978013995,0.43998894117919846
-1.067919448707167,3.9337759978013995,-0.5346388990883206
-1.067919448707167,3.9337759978013995,0.9077247394429441
-1.067919448707167,0.7614090936578962,2.323720510008487
-1.067919448707167,0.7614090936578962,-2.339622992972174
-1.067919448707167,0.7614090936578962,2.106492924439896
-1.067919448707167,0.7614090936578962,-0.21261067500730962
-1.067919448707167,0.7614090936578962,0.43998894117919846
-1.067919448707167,0.7614090936578962,-0.5346388990883206
-1.067919448707167,0.7614090936578962,0.9077247394429441
-1.067919448707167,2.323720510008487,-2.339622992972174
-1.067919448707167,2.323720510008487,2.106492924439896
-1.067919448707167,2.323720510008487,-0.21261067500730962
-1.067919448707167,2.323720510008487,0.43998894117919846
-1.067919448707167,2.323720510008487,-0.5346388990883206
-1.067919448707167,2.323720510008487,0.9077247394429441
-1.067919448707167,-2.339622992972174,-0.5346388990883206
-1.067919448707167,-2.339622992972174,0.9077247394429441
-1.067919448707167,-2.339622992972174,2.106492924439896
-1.067919448707167,-2.339622992972174,-0.21261067500730962
-1.067919448707167,-2.339622992972174,0.43998894117919846
-1.067919448707167,2.106492924439896,-0.5346388990883206
-1.067919448707167,2.106492924439896,0.9077247394429441
-1.067919448707167,2.106492924439896,-0.21261067500730962
-1.067919448707167,2.106492924439896,0.43998894117919846
-1.067919448707167,-0.21261067500730962,-0.5346388990883206
-1.067919448707167,-0.21261067500730962,0.9077247394429441
-1.067919448707167,-0.21261067500730962,0.43998894117919846
-1.067919448707167,0.43998894117919846,-0.5346388990883206
-1.067919448707167,0.43998894117919846,0.9077247394429441
-1.067919448707167,-0.5346388990883206,0.9077247394429441
3.9337759978013995,0.7614090936578962,2.323720510008487
3.9337759978013995,0.7614090936578962,-2.339622992972174
3.9337759978013995,0.7614090936578962,2.106492924439896
3.9337759978013995,0.7614090936578962,-0.21261067500730962
3.9337759978013995,0.7614090936578962,0.43998894117919846
3.9337759978013995,0.7614090936578962,-0.5346388990883206
3.9337759978013995,0.7614090936578962,0.9077247394429441
3.9337759978013995,2.323720510008487,-2.339622992972174
3.9337759978013995,2.323720510008487,2.106492924439896
3.9337759978013995,2.323720510008487,-0.21261067500730962
3.9337759978013995,2.323720510008487,0.43998894117919846
3.9337759978013995,2.323720510008487,-0.5346388990883206
3.9337759978013995,2.323720510008487,0.9077247394429441
3.9337759978013995,-2.339622992972174,-0.5346388990883206
3.9337759978013995,-2.339622992972174,0.9077247394429441
3.9337759978013995,-2.339622992972174,2.106492924439896
3.9337759978013995,-2.339622992972174,-0.21261067500730962
3.9337759978013995,-2.339622992972174,0.43998894117919846
3.9337759978013995,2.106492924439896,-0.5346388990883206
3.9337759978013995,2.106492924439896,0.9077247394429441
3.9337759978013995,2.106492924439896,-0.21261067500730962
3.9337759978013995,2.106492924439896,0.43998894117919846
3.9337759978013995,-0.21261067500730962,-0.5346388990883206
3.9337759978013995,-0.21261067500730962,0.9077247394429441
3.9337759978013995,-0.21261067500730962,0.43998894117919846
3.9337759978013995,0.43998894117919846,-0.5346388990883206
3.9337759978013995,0.43998894117919846,0.9077247394429441
3.9337759978013995,-0.5346388990883206,0.9077247394429441
0.7614090936578962,2.323720510008487,-2.339622992972174
0.7614090936578962,2.323720510008487,2.106492924439896
0.7614090936578962,2.323720510008487,-0.21261067500730962
0.7614090936578962,2.323720510008487,0.43998894117919846
0.7614090936578962,2.323720510008487,-0.5346388990883206
0.7614090936578962,2.323720510008487,0.9077247394429441
0.7614090936578962,-2.339622992972174,-0.5346388990883206
0.7614090936578962,-2.339622992972174,0.9077247394429441
0.7614090936578962,-2.339622992972174,2.106492924439896
0.7614090936578962,-2.339622992972174,-0.21261067500730962
0.7614090936578962,-2.339622992972174,0.43998894117919846
0.7614090936578962,2.106492924439896,-0.5346388990883206
0.7614090936578962,2.106492924439896,0.9077247394429441
0.7614090936578962,2.106492924439896,-0.21261067500730962
0.7614090936578962,2.106492924439896,0.43998894117919846
0.7614090936578962,-0.21261067500730962,-0.5346388990883206
0.7614090936578962,-0.21261067500730962,0.9077247394429441
0.7614090936578962,-0.21261067500730962,0.43998894117919846
0.7614090936578962,0.43998894117919846,-0.5346388990883206
0.7614090936578962,0.43998894117919846,0.9077247394429441
0.7614090936578962,-0.5346388990883206,0.9077247394429441
2.323720510008487,-2.339622992972174,-0.5346388990883206
2.323720510008487,-2.339622992972174,0.9077247394429441
2.323720510008487,-2.339622992972174,2.106492924439896
2.323720510008487,-2.339622992972174,-0.21261067500730962
2.323720510008487,-2.339622992972174,0.43998894117919846
2.323720510008487,2.106492924439896,-0.5346388990883206
2.323720510008487,2.106492924439896,0.9077247394429441
2.323720510008487,2.106492924439896,-0.21261067500730962
2.323720510008487,2.106492924439896,0.43998894117919846
2.323720510008487,-0.21261067500730962,-0.5346388990883206
2.323720510008487,-0.21261067500730962,0.9077247394429441
2.323720510008487,-0.21261067500730962,0.43998894117919846
2.323720510008487,0.43998894117919846,-0.5346388990883206
2.323720510008487,0.43998894117919846,0.9077247394429441
2.323720510008487,-0.5346388990883206,0.9077247394429441
-2.339622992972174,-0.5346388990883206,0.9077247394429441
-2.339622992972174,2.106492924439896,-0.5346388990883206
-2.339622992972174,2.106492924439896,0.9077247394429441
-2.339622992972174,2.106492924439896,-0.21261067500730962
-2.339622992972174,2.106492924439896,0.43998894117919846
-2.339622992972174,-0.21261067500730962,-0.5346388990883206
-2.339622992972174,-0.21261067500730962,0.9077247394429441
-2.339622992972174,-0.21261067500730962,0.43998894117919846
-2.339622992972174,0.43998894117919846,-0.5346388990883206
-2.339622992972174,0.43998894117919846,0.9077247394429441
2.106492924439896,-0.5346388990883206,0.9077247394429441
2.106492924439896,-0.21261067500730962,-0.5346388990883206
2.106492924439896,-0.21261067500730962,0.9077247394429441
2.106492924439896,-0.21261067500730962,0.43998894117919846
2.106492924439896,0.43998894117919846,-0.5346388990883206
2.106492924439896,0.43998894117919846,0.9077247394429441
-0.21261067500730962,-0.5346388990883206,0.9077247394429441
-0.21261067500730962,0.43998894117919846,-0.5346388990883206
-0.21261067500730962,0.43998894117919846,0.9077247394429441
0.43998894117919846,-0.5346388990883206,0.9077247394429441
