0,1,2
0.5769348907870906,2.106477026525224,-0.47518818811260555
0.5769348907870906,2.106477026525224,-5.0678646688752975
0.5769348907870906,2.106477026525224,3.571214878416482
0.5769348907870906,2.106477026525224,-0.3180166195111602
0.5769348907870906,2.106477026525224,1.2004107536488122
0.5769348907870906,2.106477026525224,0.011180845645824587
0.5769348907870906,2.106477026525224,-3.2301458022711818
0.5769348907870906,2.106477026525224,0.09128517149126929
0.5769348907870906,-0.47518818811260555,-5.0678646688752975
0.5769348907870906,-0.47518818811260555,3.571214878416482
0.5769348907870906,-0.47518818811260555,-0.3180166195111602
0.5769348907870906,-0.47518818811260555,1.2004107536488122
0.5769348907870906,-0.47518818811260555,0.011180845645824587
0.5769348907870906,-0.47518818811260555,-3.2301458022711818
0.5769348907870906,-0.47518818811260555,0.09128517149126929
0.5769348907870906,-5.0678646688752975,3.571214878416482
0.5769348907870906,-5.0678646688752975,-0.3180166195111602
0.5769348907870906,-5.0678646688752975,1.2004107536488122
0.5769348907870906,-5.0678646688752975,0.011180845645824587
0.5769348907870906,-5.0678646688752975,-3.2301458022711818
0.5769348907870906,-5.0678646688752975,0.09128517149126929
0.5769348907870906,3.571214878416482,-3.2301458022711818
0.5769348907870906,3.571214878416482,0.09128517149126929
0.5769348907870906,3.571214878416482,-0.3180166195111602
0.5769348907870906,3.571214878416482,1.2004107536488122
0.5769348907870906,3.571214878416482,0.011180845645824587
0.5769348907870906,-0.3180166195111602,-3.2301458022711818
0.5769348907870906,-0.3180166195111602,0.09128517149126929
0.5769348907870906,-0.3180166195111602,1.2004107536488122
0.5769348907870906,-0.3180166195111602,0.011180845645824587
0.5769348907870906,1.2004107536488122,-3.2301458022711818
0.5769348907870906,1.2004107536488122,0.09128517149126929
0.5769348907870906,1.2004107536488122,0.011180845645824587
0.5769348907870906,0.011180845645824587,-3.2301458022711818
0.5769348907870906,0.011180845645824587,0.09128517149126929
0.5769348907870906,-3.2301458022711818,0.09128517149126929
2.106477026525224,-0.47518818811260555,-5.0678646688752975
2.106477026525224,-0.47518818811260555,3.571214878416482
2.106477026525224,-0.47518818811260555,-0.3180166195111602
2.106477026525224,-0.47518818811260555,1.2004107536488122
2.106477026525224,-0.47518818811260555,0.011180845645824587
2.106477026525224,-0.47518818811260555,-3.2301458022711818
2.106477026525224,-0.47518818811260555,0.09128517149126929
2.106477026525224,-5.0678646688752975,3.571214878416482
2.106477026525224,-5.0678646688752975,-0.3180166195111602
2.106477026525224,-5.0678646688752975,1.2004107536488122
2.106477026525224,-5.0678646688752975,0.011180845645824587
2.106477026525224,-5.0678646688752975,-3.2301458022711818
2.106477026525224,-5.0678646688752975,0.09128517149126929
2.106477026525224,3.571214878416482,-3.2301458022711818
2.106477026525224,3.571214878416482,0.09128517149126929
2.106477026525224,3.571214878416482,-0.3180166195111602
2.106477026525224,3.571214878416482,1.2004107536488122
2.106477026525224,3.571214878416482,0.011180845645824587
2.106477026525224,-0.3180166195111602,-3.2301458022711818
2.106477026525224,-0.3180166195111602,0.09128517149126929
2.106477026525224,-0.3180166195111602,1.2004107536488122
2.106477026525224,-0.3180166195111602,0.011180845645824587
2.106477026525224,1.2004107536488122,-3.2301458022711818
2.106477026525224,1.2004107536488122,0.09128517149126929
2.106477026525224,1.2004107536488122,0.011180845645824587
2.106477026525224,0.011180845645824587,-3.2301458022711818
2.106477026525224,0.011180845645824587,0.09128517149126929
2.106477026525224,-3.2301458022711818,0.09128517149126929
-0.47518818811260555,-5.0678646688752975,3.571214878416482
-0.47518818811260555,-5.0678646688752975,-0.3180166195111602
-0.47518818811260555,-5.0678646688752975,1.2004107536488122
-0.47518818811260555,-5.0678646688752975,0.011180845645824587
-0.47518818811260555,-5.0678646688752975,-3.2301458022711818
-0.47518818811260555,-5.0678646688752975,0.09128517149126929
-0.47518818811260555,3.571214878416482,-3.2301458022711818
-0.47518818811260555,3.571214878416482,0.09128517149126929
-0.47518818811260555,3.571214878416482,-0.3180166195111602
-0.47518818811260555,3.571214878416482,1.2004107536488122
-0.47518818811260555,3.571214878416482,0.011180845645824587
-0.47518818811260555,-0.3180166195111602,-3.2301458022711818
-0.47518818811260555,-0.3180166195111602,0.09128517149126929
-0.47518818811260555,-0.3180166195111602,1.2004107536488122
-0.47518818811260555,-0.3180166195111602,0.011180845645824587
-0.47518818811260555,1.2004107536488122,-3.2301458022711818
-0.47518818811260555,1.2004107536488122,0.09128517149126929
-0.47518818811260555,1.2004107536488122,0.011180845645824587
-0.47518818811260555,0.011180845645824587,-3.2301458022711818
-0.47518818811260555,0.011180845645824587,0.09128517149126929
-0.47518818811260555,-3.2301458022711818,0.09128517149126929
-5.0678646688752975,3.571214878416482,-3.2301458022711818
-5.0678646688752975,3.571214878416482,0.09128517149126929
-5.0678646688752975,3.571214878416482,-0.3180166195111602
-5.0678646688752975,3.571214878416482,1.2004107536488122
-5.0678646688752975,3.571214878416482,0.011180845645824587
-5.0678646688752975,-0.3180166195111602,-3.2301458022711818
-5.0678646688752975,-0.3180166195111602,0.09128517149126929
-5.0678646688752975,-0.3180166195111602,1.2004107536488122
-5.0678646688752975,-0.3180166195111602,0.011180845645824587
-5.0678646688752975,1.2004107536488122,-3.2301458022711818
-5.0678646688752975,1.2004107536488122,0.09128517149126929
-5.0678646688752975,1.2004107536488122,0.011180845645824587
-5.0678646688752975,0.011180845645824587,-3.2301458022711818
-5.0678646688752975,0.011180845645824587,0.09128517149126929
-5.0678646688752975,-3.2301458022711818,0.09128517149126929
3.571214878416482,-3.2301458022711818,0.09128517149126929
3.571214878416482,-0.3180166195111602,-3.2301458022711818
3.571214878416482,-0.3180166195111602,0.09128517149126929
3.571214878416482,-0.3180166195111602,1.2004107536488122
3.571214878416482,-0.3180166195111602,0.011180845645824587
3.571214878416482,1.2004107536488122,-3.2301458022711818
3.571214878416482,1.2004107536488122,0.09128517149126929
3.571214878416482,1.2004107536488122,0.011180845645824587
3.571214878416482,0.011180845645824587,-3.2301458022711818
3.571214878416482,0.011180845645824587,0.09128517149126929
-0.3180166195111602,-3.2301458022711818,0.09128517149126929
-0.3180166195111602,1.2004107536488122,-3.2301458022711818
-0.3180166195111602,1.2004107536488122,0.09128517149126929
-0.3180166195111602,1.2004107536488122,0.011180845645824587
-0.3180166195111602,0.011180845645824587,-3.2301458022711818
-0.3180166195111602,0.011180845645824587,0.09128517149126929
1.2004107536488122,-3.2301458022711818,0.09128517149126929
1.2004107536488122,0.011180845645824587,-3.2301458022711818
1.2004107536488122,0.011180845645824587,0.09128517149126929
0.011180845645824587,-3.2301458022711818,0.09128517149126929
