0,1,2
-1.3248656882537952,2.7360165251118245,-1.3827381176399627
-1.3248656882537952,2.7360165251118245,-3.838307313826477
-1.3248656882537952,2.7360165251118245,1.3734491417038788
-1.3248656882537952,2.7360165251118245,-1.088746066718691
-1.3248656882537952,2.7360165251118245,-1.1296207305745365
-1.3248656882537952,2.7360165251118245,3.5465137637176176
-1.3248656882537952,2.7360165251118245,0.07733320168664745
-1.3248656882537952,2.7360165251118245,-3.146005292167569
-1.3248656882537952,-1.3827381176399627,-3.838307313826477
-1.3248656882537952,-1.3827381176399627,1.3734491417038788
-1.3248656882537952,-1.3827381176399627,-1.088746066718691
-1.3248656882537952,-1.3827381176399627,-1.1296207305745365
-1.3248656882537952,-1.3827381176399627,3.5465137637176176
-1.3248656882537952,-1.3827381176399627,0.07733320168664745
-1.3248656882537952,-1.3827381176399627,-3.146005292167569
-1.3248656882537952,-3.838307313826477,1.3734491417038788
-1.3248656882537952,-3.838307313826477,-1.088746066718691
-1.3248656882537952,-3.838307313826477,-1.1296207305745365
-1.3248656882537952,-3.838307313826477,3.5465137637176176
-1.3248656882537952,-3.838307313826477,0.07733320168664745
-1.3248656882537952,-3.838307313826477,-3.146005292167569
-1.3248656882537952,1.3734491417038788,0.07733320168664745
-1.3248656882537952,1.3734491417038788,-3.146005292167569
-1.3248656882537952,1.3734491417038788,-1.088746066718691
-1.3248656882537952,1.3734491417038788,-1.1296207305745365
-1.3248656882537952,1.3734491417038788,3.5465137637176176
-1.3248656882537952,-1.088746066718691,0.07733320168664745
-1.3248656882537952,-1.088746066718691,-3.146005292167569
-1.3248656882537952,-1.088746066718691,-1.1296207305745365
-1.3248656882537952,-1.088746066718691,3.5465137637176176
-1.3248656882537952,-1.1296207305745365,0.07733320168664745
-1.3248656882537952,-1.1296207305745365,-3.146005292167569
-1.3248656882537952,-1.1296207305745365,3.5465137637176176
-1.3248656882537952,3.5465137637176176,0.07733320168664745
-1.3248656882537952,3.5465137637176176,-3.146005292167569
-1.3248656882537952,0.07733320168664745,-3.146005292167569
2.7360165251118245,-1.3827381176399627,-3.838307313826477
2.7360165251118245,-1.3827381176399627,1.3734491417038788
2.7360165251118245,-1.3827381176399627,-1.088746066718691
2.7360165251118245,-1.3827381176399627,-1.1296207305745365
2.7360165251118245,-1.3827381176399627,3.5465137637176176
2.7360165251118245,-1.3827381176399627,0.07733320168664745
2.7360165251118245,-1.3827381176399627,-3.146005292167569
2.7360165251118245,-3.838307313826477,1.3734491417038788
2.7360165251118245,-3.838307313826477,-1.088746066718691
2.7360165251118245,-3.838307313826477,-1.1296207305745365
2.7360165251118245,-3.838307313826477,3.5465137637176176
2.7360165251118245,-3.838307313826477,0.07733320168664745
2.7360165251118245,-3.838307313826477,-3.146005292167569
2.7360165251118245,1.3734491417038788,0.07733320168664745
2.7360165251118245,1.3734491417038788,-3.146005292167569
2.7360165251118245,1.3734491417038788,-1.088746066718691
2.7360165251118245,1.3734491417038788,-1.1296207305745365
2.7360165251118245,1.3734491417038788,3.5465137637176176
2.7360165251118245,-1.088746066718691,0.07733320168664745
2.7360165251118245,-1.088746066718691,-3.146005292167569
2.7360165251118245,-1.088746066718691,-1.1296207305745365
2.7360165251118245,-1.088746066718691,3.5465137637176176
2.7360165251118245,-1.1296207305745365,0.07733320168664745
2.7360165251118245,-1.1296207305745365,-3.146005292167569
2.7360165251118245,-1.1296207305745365,3.5465137637176176
2.7360165251118245,3.5465137637176176,0.07733320168664745
2.7360165251118245,3.5465137637176176,-3.146005292167569
2.7360165251118245,0.07733320168664745,-3.146005292167569
-1.3827381176399627,-3.838307313826477,1.3734491417038788
-1.3827381176399627,-3.838307313826477,-1.088746066718691
-1.3827381176399627,-3.838307313826477,-1.1296207305745365
-1.3827381176399627,-3.838307313826477,3.5465137637176176
-1.3827381176399627,-3.838307313826477,0.07733320168664745
-1.3827381176399627,-3.838307313826477,-3.146005292167569
-1.3827381176399627,1.3734491417038788,0.07733320168664745
-1.3827381176399627,1.3734491417038788,-3.146005292167569
-1.3827381176399627,1.3734491417038788,-1.088746066718691
-1.3827381176399627,1.3734491417038788,-1.1296207305745365
-1.3827381176399627,1.3734491417038788,3.5465137637176176
-1.3827381176399627,-1.088746066718691,0.07733320168664745
-1.3827381176399627,-1.088746066718691,-3.146005292167569
-1.3827381176399627,-1.088746066718691,-1.1296207305745365
-1.3827381176399627,-1.088746066718691,3.5465137637176176
-1.3827381176399627,-1.1296207305745365,0.07733320168664745
-1.3827381176399627,-1.1296207305745365,-3.146005292167569
-1.3827381176399627,-1.1296207305745365,3.5465137637176176
-1.3827381176399627,3.5465137637176176,0.07733320168664745
-1.3827381176399627,3.5465137637176176,-3.146005292167569
-1.3827381176399627,0.07733320168664745,-3.146005292167569
-3.838307313826477,1.3734491417038788,0.07733320168664745
-3.838307313826477,1.3734491417038788,-3.146005292167569
-3.838307313826477,1.3734491417038788,-1.088746066718691
-3.838307313826477,1.3734491417038788,-1.1296207305745365
-3.838307313826477,1.3734491417038788,3.5465137637176176
-3.838307313826477,-1.088746066718691,0.07733320168664745
-3.838307313826477,-1.088746066718691,-3.146005292167569
-3.838307313826477,-1.088746066718691,-1.1296207305745365
-3.838307313826477,-1.088746066718691,3.5465137637176176
-3.838307313826477,-1.1296207305745365,0.07733320168664745
-3.838307313826477,-1.1296207305745365,-3.146005292167569
-3.838307313826477,-1.1296207305745365,3.5465137637176176
-3.838307313826477,3.5465137637176176,0.07733320168664745
-3.838307313826477,3.5465137637176176,-3.146005292167569
-3.838307313826477,0.07733320168664745,-3.146005292167569
1.3734491417038788,0.07733320168664745,-3.146005292167569
1.3734491417038788,-1.088746066718691,0.07733320168664745
1.3734491417038788,-1.088746066718691,-3.146005292167569
1.3734491417038788,-1.088746066718691,-1.1296207305745365
1.3734491417038788,-1.088746066718691,3.5465137637176176
1.3734491417038788,-1.1296207305745365,0.07733320168664745
1.3734491417038788,-1.1296207305745365,-3.146005292167569
1.3734491417038788,-1.1296207305745365,3.5465137637176176
1.3734491417038788,3.5465137637176176,0.07733320168664745
1.3734491417038788,3.5465137637176176,-3.146005292167569
-1.088746066718691,0.07733320168664745,-3.146005292167569
-1.088746066718691,-1.1296207305745365,0.07733320168664745
-1.088746066718691,-1.1296207305745365,-3.146005292167569
-1.088746066718691,-1.1296207305745365,3.5465137637176176
-1.088746066718691,3.5465137637176176,0.07733320168664745
-1.088746066718691,3.5465137637176176,-3.146005292167569
-1.1296207305745365,0.07733320168664745,-3.146005292167569
-1.1296207305745365,3.5465137637176176,0.07733320168664745
-1.1296207305745365,3.5465137637176176,-3.146005292167569
3.5465137637176176,0.07733320168664745,-3.146005292167569
