0,1,2
1.4476536200260322,-1.8514476301353062,0.45229177082956107
1.4476536200260322,-1.8514476301353062,-3.373104336711429
1.4476536200260322,-1.8514476301353062,1.5806369150931525
1.4476536200260322,-1.8514476301353062,-0.5748558762292257
1.4476536200260322,-1.8514476301353062,2.4994261654416645
1.4476536200260322,-1.8514476301353062,-1.103021752725899
1.4476536200260322,-1.8514476301353062,1.2519012622867887
1.4476536200260322,-1.8514476301353062,-0.14682806493167808
1.4476536200260322,0.45229177082956107,-3.373104336711429
1.4476536200260322,0.45229177082956107,1.5806369150931525
1.4476536200260322,0.45229177082956107,-0.5748558762292257
1.4476536200260322,0.45229177082956107,2.4994261654416645
1.4476536200260322,0.45229177082956107,-1.103021752725899
1.4476536200260322,0.45229177082956107,1.2519012622867887
1.4476536200260322,0.45229177082956107,-0.14682806493167808
1.4476536200260322,-3.373104336711429,1.5806369150931525
1.4476536200260322,-3.373104336711429,-0.5748558762292257
1.4476536200260322,-3.373104336711429,2.4994261654416645
1.4476536200260322,-3.373104336711429,-1.103021752725899
1.4476536200260322,-3.373104336711429,1.2519012622867887
1.4476536200260322,-3.373104336711429,-0.14682806493167808
1.4476536200260322,1.5806369150931525,1.2519012622867887
1.4476536200260322,1.5806369150931525,-0.14682806493167808
1.4476536200260322,1.5806369150931525,-0.5748558762292257
1.4476536200260322,1.5806369150931525,2.4994261654416645
1.4476536200260322,1.5806369150931525,-1.103021752725899
1.4476536200260322,-0.5748558762292257,1.2519012622867887
1.4476536200260322,-0.5748558762292257,-0.14682806493167808
1.4476536200260322,-0.5748558762292257,2.4994261654416645
1.4476536200260322,-0.5748558762292257,-1.103021752725899
1.4476536200260322,2.4994261654416645,1.2519012622867887
1.4476536200260322,2.4994261654416645,-0.14682806493167808
1.4476536200260322,2.4994261654416645,-1.103021752725899
1.4476536200260322,-1.103021752725899,1.2519012622867887
1.4476536200260322,-1.103021752725899,-0.14682806493167808
1.4476536200260322,1.2519012622867887,-0.14682806493167808
-1.8514476301353062,0.45229177082956107,-3.373104336711429
-1.8514476301353062,0.45229177082956107,1.5806369150931525
-1.8514476301353062,0.45229177082956107,-0.5748558762292257
-1.8514476301353062,0.45229177082956107,2.4994261654416645
-1.8514476301353062,0.45229177082956107,-1.103021752725899
-1.8514476301353062,0.45229177082956107,1.2519012622867887
-1.8514476301353062,0.45229177082956107,-0.14682806493167808
-1.8514476301353062,-3.373104336711429,1.5806369150931525
-1.8514476301353062,-3.373104336711429,-0.5748558762292257
-1.8514476301353062,-3.373104336711429,2.4994261654416645
-1.8514476301353062,-3.373104336711429,-1.103021752725899
-1.8514476301353062,-3.373104336711429,1.2519012622867887
-1.8514476301353062,-3.373104336711429,-0.14682806493167808
-1.8514476301353062,1.5806369150931525,1.2519012622867887
-1.8514476301353062,1.5806369150931525,-0.14682806493167808
-1.8514476301353062,1.5806369150931525,-0.5748558762292257
-1.8514476301353062,1.5806369150931525,2.4994261654416645
-1.8514476301353062,1.5806369150931525,-1.103021752725899
-1.8514476301353062,-0.5748558762292257,1.2519012622867887
-1.8514476301353062,-0.5748558762292257,-0.14682806493167808
-1.8514476301353062,-0.5748558762292257,2.4994261654416645
-1.8514476301353062,-0.5748558762292257,-1.103021752725899
-1.8514476301353062,2.4994261654416645,1.2519012622867887
-1.8514476301353062,2.4994261654416645,-0.14682806493167808
-1.8514476301353062,2.4994261654416645,-1.103021752725899
-1.8514476301353062,-1.103021752725899,1.2519012622867887
-1.8514476301353062,-1.103021752725899,-0.14682806493167808
-1.8514476301353062,1.2519012622867887,-0.14682806493167808
0.45229177082956107,-3.373104336711429,1.5806369150931525
0.45229177082956107,-3.373104336711429,-0.5748558762292257
0.45229177082956107,-3.373104336711429,2.4994261654416645
0.45229177082956107,-3.373104336711429,-1.103021752725899
0.45229177082956107,-3.373104336711429,1.2519012622867887
0.45229177082956107,-3.373104336711429,-0.14682806493167808
0.45229177082956107,1.5806369150931525,1.2519012622867887
0.45229177082956107,1.5806369150931525,-0.14682806493167808
0.45229177082956107,1.5806369150931525,-0.5748558762292257
0.45229177082956107,1.5806369150931525,2.4994261654416645
0.45229177082956107,1.5806369150931525,-1.103021752725899
0.45229177082956107,-0.5748558762292257,1.2519012622867887
0.45229177082956107,-0.5748558762292257,-0.14682806493167808
0.45229177082956107,-0.5748558762292257,2.4994261654416645
0.45229177082956107,-0.5748558762292257,-1.103021752725899
0.45229177082956107,2.4994261654416645,1.2519012622867887
0.45229177082956107,2.4994261654416645,-0.14682806493167808
0.45229177082956107,2.4994261654416645,-1.103021752725899
0.45229177082956107,-1.103021752725899,1.2519012622867887
0.45229177082956107,-1.103021752725899,-0.14682806493167808
0.45229177082956107,1.2519012622867887,-0.14682806493167808
-3.373104336711429,1.5806369150931525,1.2519012622867887
-3.373104336711429,1.5806369150931525,-0.14682806493167808
-3.373104336711429,1.5806369150931525,-0.5748558762292257
-3.373104336711429,1.5806369150931525,2.4994261654416645
-3.373104336711429,1.5806369150931525,-1.103021752725899
-3.373104336711429,-0.5748558762292257,1.2519012622867887
-3.373104336711429,-0.5748558762292257,-0.14682806493167808
-3.373104336711429,-0.5748558762292257,2.4994261654416645
-3.373104336711429,-0.5748558762292257,-1.103021752725899
-3.373104336711429,2.4994261654416645,1.2519012622867887
-3.373104336711429,2.4994261654416645,-0.14682806493167808
-3.373104336711429,2.4994261654416645,-1.103021752725899
-3.373104336711429,-1.103021752725899,1.2519012622867887
-3.373104336711429,-1.103021752725899,-0.14682806493167808
-3.373104336711429,1.2519012622867887,-0.14682806493167808
1.5806369150931525,1.2519012622867887,-0.14682806493167808
1.5806369150931525,-0.5748558762292257,1.2519012622867887
1.5806369150931525,-0.5748558762292257,-0.14682806493167808
1.5806369150931525,-0.5748558762292257,2.4994261654416645
1.5806369150931525,-0.5748558762292257,-1.103021752725899
1.5806369150931525,2.4994261654416645,1.2519012622867887
1.5806369150931525,2.4994261654416645,-0.14682806493167808
1.5806369150931525,2.4994261654416645,-1.103021752725899
1.5806369150931525,-1.103021752725899,1.2519012622867887
1.5806369150931525,-1.103021752725899,-0.14682806493167808
-0.5748558762292257,1.2519012622867887,-0.14682806493167808
-0.5748558762292257,2.4994261654416645,1.2519012622867887
-0.5748558762292257,2.4994261654416645,-0.14682806493167808
-0.5748558762292257,2.4994261654416645,-1.103021752725899
-0.5748558762292257,-1.103021752725899,1.2519012622867887
-0.5748558762292257,-1.103021752725899,-0.14682806493167808
2.4994261654416645,1.2519012622867887,-0.14682806493167808
2.4994261654416645,-1.103021752725899,1.2519012622867887
2.4994261654416645,-1.103021752725899,-0.14682806493167808
-1.103021752725899,1.2519012622867887,-0.14682806493167808
