0,1,2
-0.7939106171005123,-1.3473908241614894,-2.7173220821193067
-0.7939106171005123,-1.3473908241614894,-2.5168368072423544
-0.7939106171005123,-1.3473908241614894,0.3472760135620448
-0.7939106171005123,-1.3473908241614894,0.016010695835141735
-0.7939106171005123,-1.3473908241614894,-0.5038798119612498
-0.7939106171005123,-1.3473908241614894,0.622653060299473
-0.7939106171005123,-1.3473908241614894,-2.5205546232969533
-0.7939106171005123,-1.3473908241614894,1.5652690721861267
-0.7939106171005123,-2.7173220821193067,-2.5168368072423544
-0.7939106171005123,-2.7173220821193067,0.3472760135620448
-0.7939106171005123,-2.7173220821193067,0.016010695835141735
-0.7939106171005123,-2.7173220821193067,-0.5038798119612498
-0.7939106171005123,-2.7173220821193067,0.622653060299473
-0.7939106171005123,-2.7173220821193067,-2.5205546232969533
-0.7939106171005123,-2.7173220821193067,1.5652690721861267
-0.7939106171005123,-2.5168368072423544,0.3472760135620448
-0.7939106171005123,-2.5168368072423544,0.016010695835141735
-0.7939106171005123,-2.5168368072423544,-0.5038798119612498
-0.7939106171005123,-2.5168368072423544,0.622653060299473
-0.7939106171005123,-2.5168368072423544,-2.5205546232969533
-0.7939106171005123,-2.5168368072423544,1.5652690721861267
-0.7939106171005123,0.3472760135620448,-2.5205546232969533
-0.7939106171005123,0.3472760135620448,1.5652690721861267
-0.7939106171005123,0.3472760135620448,0.016010695835141735
-0.7939106171005123,0.3472760135620448,-0.5038798119612498
-0.7939106171005123,0.3472760135620448,0.622653060299473
-0.7939106171005123,0.016010695835141735,-2.5205546232969533
-0.7939106171005123,0.016010695835141735,1.5652690721861267
-0.7939106171005123,0.016010695835141735,-0.5038798119612498
-0.7939106171005123,0.016010695835141735,0.622653060299473
-0.7939106171005123,-0.5038798119612498,-2.5205546232969533
-0.7939106171005123,-0.5038798119612498,1.5652690721861267
-0.7939106171005123,-0.5038798119612498,0.622653060299473
-0.7939106171005123,0.622653060299473,-2.5205546232969533
-0.7939106171005123,0.622653060299473,1.5652690721861267
-0.7939106171005123,-2.5205546232969533,1.5652690721861267
-1.3473908241614894,-2.7173220821193067,-2.5168368072423544
-1.3473908241614894,-2.7173220821193067,0.3472760135620448
-1.3473908241614894,-2.7173220821193067,0.016010695835141735
-1.3473908241614894,-2.7173220821193067,-0.5038798119612498
-1.3473908241614894,-2.7173220821193067,0.622653060299473
-1.3473908241614894,-2.7173220821193067,-2.5205546232969533
-1.3473908241614894,-2.7173220821193067,1.5652690721861267
-1.3473908241614894,-2.5168368072423544,0.3472760135620448
-1.3473908241614894,-2.5168368072423544,0.016010695835141735
-1.3473908241614894,-2.5168368072423544,-0.5038798119612498
-1.3473908241614894,-2.5168368072423544,0.622653060299473
-1.3473908241614894,-2.5168368072423544,-2.5205546232969533
-1.3473908241614894,-2.5168368072423544,1.5652690721861267
-1.3473908241614894,0.3472760135620448,-2.5205546232969533
-1.3473908241614894,0.3472760135620448,1.5652690721861267
-1.3473908241614894,0.3472760135620448,0.016010695835141735
-1.3473908241614894,0.3472760135620448,-0.5038798119612498
-1.3473908241614894,0.3472760135620448,0.622653060299473
-1.3473908241614894,0.016010695835141735,-2.5205546232969533
-1.3473908241614894,0.016010695835141735,1.5652690721861267
-1.3473908241614894,0.016010695835141735,-0.5038798119612498
-1.3473908241614894,0.016010695835141735,0.622653060299473
-1.3473908241614894,-0.5038798119612498,-2.5205546232969533
-1.3473908241614894,-0.5038798119612498,1.5652690721861267
-1.3473908241614894,-0.5038798119612498,0.622653060299473
-1.3473908241614894,0.622653060299473,-2.5205546232969533
-1.3473908241614894,0.622653060299473,1.5652690721861267
-1.3473908241614894,-2.5205546232969533,1.5652690721861267
-2.7173220821193067,-2.5168368072423544,0.3472760135620448
-2.7173220821193067,-2.5168368072423544,0.016010695835141735
-2.7173220821193067,-2.5168368072423544,-0.5038798119612498
-2.7173220821193067,-2.5168368072423544,0.622653060299473
-2.7173220821193067,-2.5168368072423544,-2.5205546232969533
-2.7173220821193067,-2.5168368072423544,1.5652690721861267
-2.7173220821193067,0.3472760135620448,-2.5205546232969533
-2.7173220821193067,0.3472760135620448,1.5652690721861267
-2.7173220821193067,0.3472760135620448,0.016010695835141735
-2.7173220821193067,0.3472760135620448,-0.5038798119612498
-2.7173220821193067,0.3472760135620448,0.622653060299473
-2.7173220821193067,0.016010695835141735,-2.5205546232969533
-2.7173220821193067,0.016010695835141735,1.5652690721861267
-2.7173220821193067,0.016010695835141735,-0.5038798119612498
-2.7173220821193067,0.016010695835141735,0.622653060299473
-2.7173220821193067,-0.5038798119612498,-2.5205546232969533
-2.7173220821193067,-0.5038798119612498,1.5652690721861267
-2.7173220821193067,-0.5038798119612498,0.622653060299473
-2.7173220821193067,0.622653060299473,-2.5205546232969533
-2.7173220821193067,0.622653060299473,1.5652690721861267
-2.7173220821193067,-2.5205546232969533,1.5652690721861267
-2.5168368072423544,0.3472760135620448,-2.5205546232969533
-2.5168368072423544,0.3472760135620448,1.5652690721861267
-2.5168368072423544,0.3472760135620448,0.016010695835141735
-2.5168368072423544,0.3472760135620448,-0.5038798119612498
-2.5168368072423544,0.3472760135620448,0.622653060299473
-2.5168368072423544,0.016010695835141735,-2.5205546232969533
-2.5168368072423544,0.016010695835141735,1.5652690721861267
-2.5168368072423544,0.016010695835141735,-0.5038798119612498
-2.5168368072423544,0.016010695835141735,0.622653060299473
-2.5168368072423544,-0.5038798119612498,-2.5205546232969533
-2.5168368072423544,-0.5038798119612498,1.5652690721861267
-2.5168368072423544,-0.5038798119612498,0.622653060299473
-2.5168368072423544,0.622653060299473,-2.5205546232969533
-2.5168368072423544,0.622653060299473,1.5652690721861267
-2.5168368072423544,-2.5205546232969533,1.5652690721861267
0.3472760135620448,-2.5205546232969533,1.5652690721861267
0.3472760135620448,0.016010695835141735,-2.5205546232969533
0.3472760135620448,0.016010695835141735,1.5652690721861267
0.3472760135620448,0.016010695835141735,-0.5038798119612498
0.3472760135620448,0.016010695835141735,0.622653060299473
0.3472760135620448,-0.5038798119612498,-2.5205546232969533
0.3472760135620448,-0.5038798119612498,1.5652690721861267
0.3472760135620448,-0.5038798119612498,0.622653060299473
0.3472760135620448,0.622653060299473,-2.5205546232969533
0.3472760135620448,0.622653060299473,1.5652690721861267
0.016010695835141735,-2.5205546232969533,1.5652690721861267
0.016010695835141735,-0.5038798119612498,-2.5205546232969533
0.016010695835141735,-0.5038798119612498,1.5652690721861267
0.016010695835141735,-0.5038798119612498,0.622653060299473
0.016010695835141735,0.622653060299473,-2.5205546232969533
0.016010695835141735,0.622653060299473,1.5652690721861267
-0.5038798119612498,-2.5205546232969533,1.5652690721861267
-0.5038798119612498,0.622653060299473,-2.5205546232969533
-0.5038798119612498,0.622653060299473,1.5652690721861267
0.622653060299473,-2.5205546232969533,1.5652690721861267
