0,1,2
2.1386625919283486,3.0553501492644393,-2.577749532147186
2.1386625919283486,3.0553501492644393,0.46643568505818495
2.1386625919283486,3.0553501492644393,-1.1110771439987586
2.1386625919283486,3.0553501492644393,1.4919779471920984
2.1386625919283486,3.0553501492644393,2.8369822763020496
2.1386625919283486,3.0553501492644393,2.5507080436878256
2.1386625919283486,3.0553501492644393,-0.47650508125328045
2.1386625919283486,3.0553501492644393,0.2087180859862663
2.1386625919283486,-2.577749532147186,0.46643568505818495
2.1386625919283486,-2.577749532147186,-1.1110771439987586
2.1386625919283486,-2.577749532147186,1.4919779471920984
2.1386625919283486,-2.577749532147186,2.8369822763020496
2.1386625919283486,-2.577749532147186,2.5507080436878256
2.1386625919283486,-2.577749532147186,-0.47650508125328045
2.1386625919283486,-2.577749532147186,0.2087180859862663
2.1386625919283486,0.46643568505818495,-1.1110771439987586
2.1386625919283486,0.46643568505818495,1.4919779471920984
2.1386625919283486,0.46643568505818495,2.8369822763020496
2.1386625919283486,0.46643568505818495,2.5507080436878256
2.1386625919283486,0.46643568505818495,-0.47650508125328045
2.1386625919283486,0.46643568505818495,0.2087180859862663
2.1386625919283486,-1.1110771439987586,-0.47650508125328045
2.1386625919283486,-1.1110771439987586,0.2087180859862663
2.1386625919283486,-1.1110771439987586,1.4919779471920984
2.1386625919283486,-1.1110771439987586,2.8369822763020496
2.1386625919283486,-1.1110771439987586,2.5507080436878256
2.1386625919283486,1.4919779471920984,-0.47650508125328045
2.1386625919283486,1.4919779471920984,0.2087180859862663
2.1386625919283486,1.4919779471920984,2.8369822763020496
2.1386625919283486,1.4919779471920984,2.5507080436878256
2.1386625919283486,2.8369822763020496,-0.47650508125328045
2.1386625919283486,2.8369822763020496,0.2087180859862663
2.1386625919283486,2.8369822763020496,2.5507080436878256
2.1386625919283486,2.5507080436878256,-0.47650508125328045
2.1386625919283486,2.5507080436878256,0.2087180859862663
2.1386625919283486,-0.47650508125328045,0.2087180859862663
3.0553501492644393,-2.577749532147186,0.46643568505818495
3.0553501492644393,-2.577749532147186,-1.1110771439987586
3.0553501492644393,-2.577749532147186,1.4919779471920984
3.0553501492644393,-2.577749532147186,2.8369822763020496
3.0553501492644393,-2.577749532147186,2.5507080436878256
3.0553501492644393,-2.577749532147186,-0.47650508125328045
3.0553501492644393,-2.577749532147186,0.2087180859862663
3.0553501492644393,0.46643568505818495,-1.1110771439987586
3.0553501492644393,0.46643568505818495,1.4919779471920984
3.0553501492644393,0.46643568505818495,2.8369822763020496
3.0553501492644393,0.46643568505818495,2.5507080436878256
3.0553501492644393,0.46643568505818495,-0.47650508125328045
3.0553501492644393,0.46643568505818495,0.2087180859862663
3.0553501492644393,-1.1110771439987586,-0.47650508125328045
3.0553501492644393,-1.1110771439987586,0.2087180859862663
3.0553501492644393,-1.1110771439987586,1.4919779471920984
3.0553501492644393,-1.1110771439987586,2.8369822763020496
3.0553501492644393,-1.1110771439987586,2.5507080436878256
3.0553501492644393,1.4919779471920984,-0.47650508125328045
3.0553501492644393,1.4919779471920984,0.2087180859862663
3.0553501492644393,1.4919779471920984,2.8369822763020496
3.0553501492644393,1.4919779471920984,2.5507080436878256
3.0553501492644393,2.8369822763020496,-0.47650508125328045
3.0553501492644393,2.8369822763020496,0.2087180859862663
3.0553501492644393,2.8369822763020496,2.5507080436878256
3.0553501492644393,2.5507080436878256,-0.47650508125328045
3.0553501492644393,2.5507080436878256,0.2087180859862663
3.0553501492644393,-0.47650508125328045,0.2087180859862663
-2.577749532147186,0.46643568505818495,-1.1110771439987586
-2.577749532147186,0.46643568505818495,1.4919779471920984
-2.577749532147186,0.46643568505818495,2.8369822763020496
-2.577749532147186,0.46643568505818495,2.5507080436878256
-2.577749532147186,0.46643568505818495,-0.47650508125328045
-2.577749532147186,0.46643568505818495,0.2087180859862663
-2.577749532147186,-1.1110771439987586,-0.47650508125328045
-2.577749532147186,-1.1110771439987586,0.2087180859862663
-2.577749532147186,-1.1110771439987586,1.4919779471920984
-2.577749532147186,-1.1110771439987586,2.8369822763020496
-2.577749532147186,-1.1110771439987586,2.5507080436878256
-2.577749532147186,1.4919779471920984,-0.47650508125328045
-2.577749532147186,1.4919779471920984,0.2087180859862663
-2.577749532147186,1.4919779471920984,2.8369822763020496
-2.577749532147186,1.4919779471920984,2.5507080436878256
-2.577749532147186,2.8369822763020496,-0.47650508125328045
-2.577749532147186,2.8369822763020496,0.2087180859862663
-2.577749532147186,2.8369822763020496,2.5507080436878256
-2.577749532147186,2.5507080436878256,-0.47650508125328045
-2.577749532147186,2.5507080436878256,0.2087180859862663
-2.577749532147186,-0.47650508125328045,0.2087180859862663
0.46643568505818495,-1.1110771439987586,-0.47650508125328045
0.46643568505818495,-1.1110771439987586,0.2087180859862663
0.46643568505818495,-1.1110771439987586,1.4919779471920984
0.46643568505818495,-1.1110771439987586,2.8369822763020496
0.46643568505818495,-1.1110771439987586,2.5507080436878256
0.46643568505818495,1.4919779471920984,-0.47650508125328045
0.46643568505818495,1.4919779471920984,0.2087180859862663
0.46643568505818495,1.4919779471920984,2.8369822763020496
0.46643568505818495,1.4919779471920984,2.5507080436878256
0.46643568505818495,2.8369822763020496,-0.47650508125328045
0.46643568505818495,2.8369822763020496,0.2087180859862663
0.46643568505818495,2.8369822763020496,2.5507080436878256
0.46643568505818495,2.5507080436878256,-0.47650508125328045
0.46643568505818495,2.5507080436878256,0.2087180859862663
0.46643568505818495,-0.47650508125328045,0.2087180859862663
-1.1110771439987586,-0.47650508125328045,0.2087180859862663
-1.1110771439987586,1.4919779471920984,-0.47650508125328045
-1.1110771439987586,1.4919779471920984,0.2087180859862663
-1.1110771439987586,1.4919779471920984,2.8369822763020496
-1.1110771439987586,1.4919779471920984,2.5507080436878256
-1.1110771439987586,2.8369822763020496,-0.47650508125328045
-1.1110771439987586,2.8369822763020496,0.2087180859862663
-1.1110771439987586,2.8369822763020496,2.5507080436878256
-1.1110771439987586,2.5507080436878256,-0.47650508125328045
-1.1110771439987586,2.5507080436878256,0.2087180859862663
1.4919779471920984,-0.47650508125328045,0.2087180859862663
1.4919779471920984,2.8369822763020496,-0.47650508125328045
1.4919779471920984,2.8369822763020496,0.2087180859862663
1.4919779471920984,2.8369822763020496,2.5507080436878256
1.4919779471920984,2.5507080436878256,-0.47650508125328045
1.4919779471920984,2.5507080436878256,0.2087180859862663
2.8369822763020496,-0.47650508125328045,0.2087180859862663
2.8369822763020496,2.5507080436878256,-0.47650508125328045
2.8369822763020496,2.5507080436878256,0.2087180859862663
2.5507080436878256,-0.47650508125328045,0.2087180859862663
