0,1,2
3.013016402437988,-4.1174481428798515,-0.8560274276383153
3.013016402437988,-4.1174481428798515,1.374336929360812
3.013016402437988,-4.1174481428798515,2.4373429005252647
3.013016402437988,-4.1174481428798515,0.06277444371303524
3.013016402437988,-4.1174481428798515,-0.21844089231939393
3.013016402437988,-4.1174481428798515,2.6299473082035596
3.013016402437988,-4.1174481428798515,-4.212308407037398
3.013016402437988,-4.1174481428798515,-2.1839439640059135
3.013016402437988,-0.8560274276383153,1.374336929360812
3.013016402437988,-0.8560274276383153,2.4373429005252647
3.013016402437988,-0.8560274276383153,0.06277444371303524
3.013016402437988,-0.8560274276383153,-0.21844089231939393
3.013016402437988,-0.8560274276383153,2.6299473082035596
3.013016402437988,-0.8560274276383153,-4.212308407037398
3.013016402437988,-0.8560274276383153,-2.1839439640059135
3.013016402437988,1.374336929360812,2.4373429005252647
3.013016402437988,1.374336929360812,0.06277444371303524
3.013016402437988,1.374336929360812,-0.21844089231939393
3.013016402437988,1.374336929360812,2.6299473082035596
3.013016402437988,1.374336929360812,-4.212308407037398
3.013016402437988,1.374336929360812,-2.1839439640059135
3.013016402437988,2.4373429005252647,-4.212308407037398
3.013016402437988,2.4373429005252647,-2.1839439640059135
3.013016402437988,2.4373429005252647,0.06277444371303524
3.013016402437988,2.4373429005252647,-0.21844089231939393
3.013016402437988,2.4373429005252647,2.6299473082035596
3.013016402437988,0.06277444371303524,-4.212308407037398
3.013016402437988,0.06277444371303524,-2.1839439640059135
3.013016402437988,0.06277444371303524,-0.21844089231939393
3.013016402437988,0.06277444371303524,2.6299473082035596
3.013016402437988,-0.21844089231939393,-4.212308407037398
3.013016402437988,-0.21844089231939393,-2.1839439640059135
3.013016402437988,-0.21844089231939393,2.6299473082035596
3.013016402437988,2.6299473082035596,-4.212308407037398
3.013016402437988,2.6299473082035596,-2.1839439640059135
3.013016402437988,-4.212308407037398,-2.1839439640059135
-4.1174481428798515,-0.8560274276383153,1.374336929360812
-4.1174481428798515,-0.8560274276383153,2.4373429005252647
-4.1174481428798515,-0.8560274276383153,0.06277444371303524
-4.1174481428798515,-0.8560274276383153,-0.21844089231939393
-4.1174481428798515,-0.8560274276383153,2.6299473082035596
-4.1174481428798515,-0.8560274276383153,-4.212308407037398
-4.1174481428798515,-0.8560274276383153,-2.1839439640059135
-4.1174481428798515,1.374336929360812,2.4373429005252647
-4.1174481428798515,1.374336929360812,0.06277444371303524
-4.1174481428798515,1.374336929360812,-0.21844089231939393
-4.1174481428798515,1.374336929360812,2.6299473082035596
-4.1174481428798515,1.374336929360812,-4.212308407037398
-4.1174481428798515,1.374336929360812,-2.1839439640059135
-4.1174481428798515,2.4373429005252647,-4.212308407037398
-4.1174481428798515,2.4373429005252647,-2.1839439640059135
-4.1174481428798515,2.4373429005252647,0.06277444371303524
-4.1174481428798515,2.4373429005252647,-0.21844089231939393
-4.1174481428798515,2.4373429005252647,2.6299473082035596
-4.1174481428798515,0.06277444371303524,-4.212308407037398
-4.1174481428798515,0.06277444371303524,-2.1839439640059135
-4.1174481428798515,0.06277444371303524,-0.21844089231939393
-4.1174481428798515,0.06277444371303524,2.6299473082035596
-4.1174481428798515,-0.21844089231939393,-4.212308407037398
-4.1174481428798515,-0.21844089231939393,-2.1839439640059135
-4.1174481428798515,-0.21844089231939393,2.6299473082035596
-4.1174481428798515,2.6299473082035596,-4.212308407037398
-4.1174481428798515,2.6299473082035596,-2.1839439640059135
-4.1174481428798515,-4.212308407037398,-2.1839439640059135
-0.8560274276383153,1.374336929360812,2.4373429005252647
-0.8560274276383153,1.374336929360812,0.06277444371303524
-0.8560274276383153,1.374336929360812,-0.21844089231939393
-0.8560274276383153,1.374336929360812,2.6299473082035596
-0.8560274276383153,1.374336929360812,-4.212308407037398
-0.8560274276383153,1.374336929360812,-2.1839439640059135
-0.8560274276383153,2.4373429005252647,-4.212308407037398
-0.8560274276383153,2.4373429005252647,-2.1839439640059135
-0.8560274276383153,2.4373429005252647,0.06277444371303524
-0.8560274276383153,2.4373429005252647,-0.21844089231939393
-0.8560274276383153,2.4373429005252647,2.6299473082035596
-0.8560274276383153,0.06277444371303524,-4.212308407037398
-0.8560274276383153,0.06277444371303524,-2.1839439640059135
-0.8560274276383153,0.06277444371303524,-0.21844089231939393
-0.8560274276383153,0.06277444371303524,2.6299473082035596
-0.8560274276383153,-0.21844089231939393,-4.212308407037398
-0.8560274276383153,-0.21844089231939393,-2.1839439640059135
-0.8560274276383153,-0.21844089231939393,2.6299473082035596
-0.8560274276383153,2.6299473082035596,-4.212308407037398
-0.8560274276383153,2.6299473082035596,-2.1839439640059135
-0.8560274276383153,-4.212308407037398,-2.1839439640059135
1.374336929360812,2.4373429005252647,-4.212308407037398
1.374336929360812,2.4373429005252647,-2.1839439640059135
1.374336929360812,2.4373429005252647,0.06277444371303524
1.374336929360812,2.4373429005252647,-0.21844089231939393
1.374336929360812,2.4373429005252647,2.6299473082035596
1.374336929360812,0.06277444371303524,-4.212308407037398
1.374336929360812,0.06277444371303524,-2.1839439640059135
1.374336929360812,0.06277444371303524,-0.21844089231939393
1.374336929360812,0.06277444371303524,2.6299473082035596
1.374336929360812,-0.21844089231939393,-4.212308407037398
1.374336929360812,-0.21844089231939393,-2.1839439640059135
1.374336929360812,-0.21844089231939393,2.6299473082035596
1.374336929360812,2.6299473082035596,-4.212308407037398
1.374336929360812,2.6299473082035596,-2.1839439640059135
1.374336929360812,-4.212308407037398,-2.1839439640059135
2.4373429005252647,-4.212308407037398,-2.1839439640059135
2.4373429005252647,0.06277444371303524,-4.212308407037398
2.4373429005252647,0.06277444371303524,-2.1839439640059135
2.4373429005252647,0.06277444371303524,-0.21844089231939393
2.4373429005252647,0.06277444371303524,2.6299473082035596
2.4373429005252647,-0.21844089231939393,-4.212308407037398
2.4373429005252647,-0.21844089231939393,-2.1839439640059135
2.4373429005252647,-0.21844089231939393,2.6299473082035596
2.4373429005252647,2.6299473082035596,-4.212308407037398
2.4373429005252647,2.6299473082035596,-2.1839439640059135
0.06277444371303524,-4.212308407037398,-2.1839439640059135
0.06277444371303524,-0.21844089231939393,-4.212308407037398
0.06277444371303524,-0.21844089231939393,-2.1839439640059135
0.06277444371303524,-0.21844089231939393,2.6299473082035596
0.06277444371303524,2.6299473082035596,-4.212308407037398
0.06277444371303524,2.6299473082035596,-2.1839439640059135
-0.21844089231939393,-4.212308407037398,-2.1839439640059135
-0.21844089231939393,2.6299473082035596,-4.212308407037398
-0.21844089231939393,2.6299473082035596,-2.1839439640059135
2.6299473082035596,-4.212308407037398,-2.1839439640059135
