0,1,2
-0.888241415702006,2.2689462502579936,1.7746168722925226
-0.888241415702006,2.2689462502579936,1.6566739166063027
-0.888241415702006,2.2689462502579936,-0.9859123099051152
-0.888241415702006,2.2689462502579936,-4.273985069294393
-0.888241415702006,2.2689462502579936,0.4029422363288009
-0.888241415702006,2.2689462502579936,0.8027444982416203
-0.888241415702006,2.2689462502579936,2.954883440874911
-0.888241415702006,2.2689462502579936,-3.3380155547466823
-0.888241415702006,1.7746168722925226,1.6566739166063027
-0.888241415702006,1.7746168722925226,-0.9859123099051152
-0.888241415702006,1.7746168722925226,-4.273985069294393
-0.888241415702006,1.7746168722925226,0.4029422363288009
-0.888241415702006,1.7746168722925226,0.8027444982416203
-0.888241415702006,1.7746168722925226,2.954883440874911
-0.888241415702006,1.7746168722925226,-3.3380155547466823
-0.888241415702006,1.6566739166063027,-0.9859123099051152
-0.888241415702006,1.6566739166063027,-4.273985069294393
-0.888241415702006,1.6566739166063027,0.4029422363288009
-0.888241415702006,1.6566739166063027,0.8027444982416203
-0.888241415702006,1.6566739166063027,2.954883440874911
-0.888241415702006,1.6566739166063027,-3.3380155547466823
-0.888241415702006,-0.9859123099051152,2.954883440874911
-0.888241415702006,-0.9859123099051152,-3.3380155547466823
-0.888241415702006,-0.9859123099051152,-4.273985069294393
-0.888241415702006,-0.9859123099051152,0.4029422363288009
-0.888241415702006,-0.9859123099051152,0.8027444982416203
-0.888241415702006,-4.273985069294393,2.954883440874911
-0.888241415702006,-4.273985069294393,-3.3380155547466823
-0.888241415702006,-4.273985069294393,0.4029422363288009
-0.888241415702006,-4.273985069294393,0.8027444982416203
-0.888241415702006,0.4029422363288009,2.954883440874911
-0.888241415702006,0.4029422363288009,-3.3380155547466823
-0.888241415702006,0.4029422363288009,0.8027444982416203
-0.888241415702006,0.8027444982416203,2.954883440874911
-0.888241415702006,0.8027444982416203,-3.3380155547466823
-0.888241415702006,2.954883440874911,-3.3380155547466823
2.2689462502579936,1.7746168722925226,1.6566739166063027
2.2689462502579936,1.7746168722925226,-0.9859123099051152
2.2689462502579936,1.7746168722925226,-4.273985069294393
2.2689462502579936,1.7746168722925226,0.4029422363288009
2.2689462502579936,1.7746168722925226,0.8027444982416203
2.2689462502579936,1.7746168722925226,2.954883440874911
2.2689462502579936,1.7746168722925226,-3.3380155547466823
2.2689462502579936,1.6566739166063027,-0.9859123099051152
2.2689462502579936,1.6566739166063027,-4.273985069294393
2.2689462502579936,1.6566739166063027,0.4029422363288009
2.2689462502579936,1.6566739166063027,0.8027444982416203
2.2689462502579936,1.6566739166063027,2.954883440874911
2.2689462502579936,1.6566739166063027,-3.3380155547466823
2.2689462502579936,-0.9859123099051152,2.954883440874911
2.2689462502579936,-0.9859123099051152,-3.3380155547466823
2.2689462502579936,-0.9859123099051152,-4.273985069294393
2.2689462502579936,-0.9859123099051152,0.4029422363288009
2.2689462502579936,-0.9859123099051152,0.8027444982416203
2.2689462502579936,-4.273985069294393,2.954883440874911
2.2689462502579936,-4.273985069294393,-3.3380155547466823
2.2689462502579936,-4.273985069294393,0.4029422363288009
2.2689462502579936,-4.273985069294393,0.8027444982416203
2.2689462502579936,0.4029422363288009,2.954883440874911
2.2689462502579936,0.4029422363288009,-3.3380155547466823
2.2689462502579936,0.4029422363288009,0.8027444982416203
2.2689462502579936,0.8027444982416203,2.954883440874911
2.2689462502579936,0.8027444982416203,-3.3380155547466823
2.2689462502579936,2.954883440874911,-3.3380155547466823
1.7746168722925226,1.6566739166063027,-0.9859123099051152
1.7746168722925226,1.6566739166063027,-4.273985069294393
1.7746168722925226,1.6566739166063027,0.4029422363288009
1.7746168722925226,1.6566739166063027,0.8027444982416203
1.7746168722925226,1.6566739166063027,2.954883440874911
1.7746168722925226,1.6566739166063027,-3.3380155547466823
1.7746168722925226,-0.9859123099051152,2.954883440874911
1.7746168722925226,-0.9859123099051152,-3.3380155547466823
1.7746168722925226,-0.9859123099051152,-4.273985069294393
1.7746168722925226,-0.9859123099051152,0.4029422363288009
1.7746168722925226,-0.9859123099051152,0.8027444982416203
1.7746168722925226,-4.273985069294393,2.954883440874911
1.7746168722925226,-4.273985069294393,-3.3380155547466823
1.7746168722925226,-4.273985069294393,0.4029422363288009
1.7746168722925226,-4.273985069294393,0.8027444982416203
1.7746168722925226,0.4029422363288009,2.954883440874911
1.7746168722925226,0.4029422363288009,-3.3380155547466823
1.7746168722925226,0.4029422363288009,0.8027444982416203
1.7746168722925226,0.8027444982416203,2.954883440874911
1.7746168722925226,0.8027444982416203,-3.3380155547466823
1.7746168722925226,2.954883440874911,-3.3380155547466823
1.6566739166063027,-0.9859123099051152,2.954883440874911
1.6566739166063027,-0.9859123099051152,-3.3380155547466823
1.6566739166063027,-0.9859123099051152,-4.273985069294393
1.6566739166063027,-0.9859123099051152,0.4029422363288009
1.6566739166063027,-0.9859123099051152,0.8027444982416203
1.6566739166063027,-4.273985069294393,2.954883440874911
1.6566739166063027,-4.273985069294393,-3.3380155547466823
1.6566739166063027,-4.273985069294393,0.4029422363288009
1.6566739166063027,-4.273985069294393,0.8027444982416203
1.6566739166063027,0.4029422363288009,2.954883440874911
1.6566739166063027,0.4029422363288009,-3.3380155547466823
1.6566739166063027,0.4029422363288009,0.8027444982416203
1.6566739166063027,0.8027444982416203,2.954883440874911
1.6566739166063027,0.8027444982416203,-3.3380155547466823
1.6566739166063027,2.954883440874911,-3.3380155547466823
-0.9859123099051152,2.954883440874911,-3.3380155547466823
-0.9859123099051152,-4.273985069294393,2.954883440874911
-0.9859123099051152,-4.273985069294393,-3.3380155547466823
-0.9859123099051152,-4.273985069294393,0.4029422363288009
-0.9859123099051152,-4.273985069294393,0.8027444982416203
-0.9859123099051152,0.4029422363288009,2.954883440874911
-0.9859123099051152,0.4029422363288009,-3.3380155547466823
-0.9859123099051152,0.4029422363288009,0.8027444982416203
-0.9859123099051152,0.8027444982416203,2.954883440874911
-0.9859123099051152,0.8027444982416203,-3.3380155547466823
-4.273985069294393,2.954883440874911,-3.3380155547466823
-4.273985069294393,0.4029422363288009,2.954883440874911
-4.273985069294393,0.4029422363288009,-3.3380155547466823
-4.273985069294393,0.4029422363288009,0.8027444982416203
-4.273985069294393,0.8027444982416203,2.954883440874911
-4.273985069294393,0.8027444982416203,-3.3380155547466823
0.4029422363288009,2.954883440874911,-3.3380155547466823
0.4029422363288009,0.8027444982416203,2.954883440874911
0.4029422363288009,0.8027444982416203,-3.3380155547466823
0.8027444982416203,2.954883440874911,-3.3380155547466823
