0,1,2
0.6638318172440981,2.283707530750185,-2.49094344438521
0.6638318172440981,2.283707530750185,2.9743011847302765
0.6638318172440981,2.283707530750185,-3.5243529446070285
0.6638318172440981,2.283707530750185,-0.2313471998279055
0.6638318172440981,2.283707530750185,1.4373204237089428
0.6638318172440981,2.283707530750185,-1.4462934610027716
0.6638318172440981,2.283707530750185,-1.7883574543735037
0.6638318172440981,2.283707530750185,-4.40232428863071
0.6638318172440981,-2.49094344438521,2.9743011847302765
0.6638318172440981,-2.49094344438521,-3.5243529446070285
0.6638318172440981,-2.49094344438521,-0.2313471998279055
0.6638318172440981,-2.49094344438521,1.4373204237089428
0.6638318172440981,-2.49094344438521,-1.4462934610027716
0.6638318172440981,-2.49094344438521,-1.7883574543735037
0.6638318172440981,-2.49094344438521,-4.40232428863071
0.6638318172440981,2.9743011847302765,-3.5243529446070285
0.6638318172440981,2.9743011847302765,-0.2313471998279055
0.6638318172440981,2.9743011847302765,1.4373204237089428
0.6638318172440981,2.9743011847302765,-1.4462934610027716
0.6638318172440981,2.9743011847302765,-1.7883574543735037
0.6638318172440981,2.9743011847302765,-4.40232428863071
0.6638318172440981,-3.5243529446070285,-1.7883574543735037
0.6638318172440981,-3.5243529446070285,-4.40232428863071
0.6638318172440981,-3.5243529446070285,-0.2313471998279055
0.6638318172440981,-3.5243529446070285,1.4373204237089428
0.6638318172440981,-3.5243529446070285,-1.4462934610027716
0.6638318172440981,-0.2313471998279055,-1.7883574543735037
0.6638318172440981,-0.2313471998279055,-4.40232428863071
0.6638318172440981,-0.2313471998279055,1.4373204237089428
0.6638318172440981,-0.2313471998279055,-1.4462934610027716
0.6638318172440981,1.4373204237089428,-1.7883574543735037
0.6638318172440981,1.4373204237089428,-4.40232428863071
0.6638318172440981,1.4373204237089428,-1.4462934610027716
0.6638318172440981,-1.4462934610027716,-1.7883574543735037
0.6638318172440981,-1.4462934610027716,-4.40232428863071
0.6638318172440981,-1.7883574543735037,-4.40232428863071
2.283707530750185,-2.49094344438521,2.9743011847302765
2.283707530750185,-2.49094344438521,-3.5243529446070285
2.283707530750185,-2.49094344438521,-0.2313471998279055
2.283707530750185,-2.49094344438521,1.4373204237089428
2.283707530750185,-2.49094344438521,-1.4462934610027716
2.283707530750185,-2.49094344438521,-1.7883574543735037
2.283707530750185,-2.49094344438521,-4.40232428863071
2.283707530750185,2.9743011847302765,-3.5243529446070285
2.283707530750185,2.9743011847302765,-0.2313471998279055
2.283707530750185,2.9743011847302765,1.4373204237089428
2.283707530750185,2.9743011847302765,-1.4462934610027716
2.283707530750185,2.9743011847302765,-1.7883574543735037
2.283707530750185,2.9743011847302765,-4.40232428863071
2.283707530750185,-3.5243529446070285,-1.7883574543735037
2.283707530750185,-3.5243529446070285,-4.40232428863071
2.283707530750185,-3.5243529446070285,-0.2313471998279055
2.283707530750185,-3.5243529446070285,1.4373204237089428
2.283707530750185,-3.5243529446070285,-1.4462934610027716
2.283707530750185,-0.2313471998279055,-1.7883574543735037
2.283707530750185,-0.2313471998279055,-4.40232428863071
2.283707530750185,-0.2313471998279055,1.4373204237089428
2.283707530750185,-0.2313471998279055,-1.4462934610027716
2.283707530750185,1.4373204237089428,-1.7883574543735037
2.283707530750185,1.4373204237089428,-4.40232428863071
2.283707530750185,1.4373204237089428,-1.4462934610027716
2.283707530750185,-1.4462934610027716,-1.7883574543735037
2.283707530750185,-1.4462934610027716,-4.40232428863071
2.283707530750185,-1.7883574543735037,-4.40232428863071
-2.49094344438521,2.9743011847302765,-3.5243529446070285
-2.49094344438521,2.9743011847302765,-0.2313471998279055
-2.49094344438521,2.9743011847302765,1.4373204237089428
-2.49094344438521,2.9743011847302765,-1.4462934610027716
-2.49094344438521,2.9743011847302765,-1.7883574543735037
-2.49094344438521,2.9743011847302765,-4.40232428863071
-2.49094344438521,-3.5243529446070285,-1.7883574543735037
-2.49094344438521,-3.5243529446070285,-4.40232428863071
-2.49094344438521,-3.5243529446070285,-0.2313471998279055
-2.49094344438521,-3.5243529446070285,1.4373204237089428
-2.49094344438521,-3.5243529446070285,-1.4462934610027716
-2.49094344438521,-0.2313471998279055,-1.7883574543735037
-2.49094344438521,-0.2313471998279055,-4.40232428863071
-2.49094344438521,-0.2313471998279055,1.4373204237089428
-2.49094344438521,-0.2313471998279055,-1.4462934610027716
-2.49094344438521,1.4373204237089428,-1.7883574543735037
-2.49094344438521,1.4373204237089428,-4.40232428863071
-2.49094344438521,1.4373204237089428,-1.4462934610027716
-2.49094344438521,-1.4462934610027716,-1.7883574543735037
-2.49094344438521,-1.4462934610027716,-4.40232428863071
-2.49094344438521,-1.7883574543735037,-4.40232428863071
2.9743011847302765,-3.5243529446070285,-1.7883574543735037
2.9743011847302765,-3.5243529446070285,-4.40232428863071
2.9743011847302765,-3.5243529446070285,-0.2313471998279055
2.9743011847302765,-3.5243529446070285,1.4373204237089428
2.9743011847302765,-3.5243529446070285,-1.4462934610027716
2.9743011847302765,-0.2313471998279055,-1.7883574543735037
2.9743011847302765,-0.2313471998279055,-4.40232428863071
2.9743011847302765,-0.2313471998279055,1.4373204237089428
2.9743011847302765,-0.2313471998279055,-1.4462934610027716
2.9743011847302765,1.4373204237089428,-1.7883574543735037
2.9743011847302765,1.4373204237089428,-4.40232428863071
2.9743011847302765,1.4373204237089428,-1.4462934610027716
2.9743011847302765,-1.4462934610027716,-1.7883574543735037
2.9743011847302765,-1.4462934610027716,-4.40232428863071
2.9743011847302765,-1.7883574543735037,-4.40232428863071
-3.5243529446070285,-1.7883574543735037,-4.40232428863071
-3.5243529446070285,-0.2313471998279055,-1.7883574543735037
-3.5243529446070285,-0.2313471998279055,-4.40232428863071
-3.5243529446070285,-0.2313471998279055,1.4373204237089428
-3.5243529446070285,-0.2313471998279055,-1.4462934610027716
-3.5243529446070285,1.4373204237089428,-1.7883574543735037
-3.5243529446070285,1.4373204237089428,-4.40232428863071
-3.5243529446070285,1.4373204237089428,-1.4462934610027716
-3.5243529446070285,-1.4462934610027716,-1.7883574543735037
-3.5243529446070285,-1.4462934610027716,-4.40232428863071
-0.2313471998279055,-1.7883574543735037,-4.40232428863071
-0.2313471998279055,1.4373204237089428,-1.7883574543735037
-0.2313471998279055,1.4373204237089428,-4.40232428863071
-0.2313471998279055,1.4373204237089428,-1.4462934610027716
-0.2313471998279055,-1.4462934610027716,-1.7883574543735037
-0.2313471998279055,-1.4462934610027716,-4.40232428863071
1.4373204237089428,-1.7883574543735037,-4.40232428863071
1.4373204237089428,-1.4462934610027716,-1.7883574543735037
1.4373204237089428,-1.4462934610027716,-4.40232428863071
-1.4462934610027716,-1.7883574543735037,-4.40232428863071
