0,1,2
-0.3721397796411763,0.3187008507215496,0.4049794561941445
-0.3721397796411763,0.3187008507215496,-0.5896645269170224
-0.3721397796411763,0.3187008507215496,-3.452993212445055
-0.3721397796411763,0.3187008507215496,1.8309637902542866
-0.3721397796411763,0.3187008507215496,0.43430174260940085
-0.3721397796411763,0.3187008507215496,-1.7569862754491816
-0.3721397796411763,0.3187008507215496,-0.6461925445306542
-0.3721397796411763,0.3187008507215496,1.3981988382958044
-0.3721397796411763,0.4049794561941445,-0.5896645269170224
-0.3721397796411763,0.4049794561941445,-3.452993212445055
-0.3721397796411763,0.4049794561941445,1.8309637902542866
-0.3721397796411763,0.4049794561941445,0.43430174260940085
-0.3721397796411763,0.4049794561941445,-1.7569862754491816
-0.3721397796411763,0.4049794561941445,-0.6461925445306542
-0.3721397796411763,0.4049794561941445,1.3981988382958044
-0.3721397796411763,-0.5896645269170224,-3.452993212445055
-0.3721397796411763,-0.5896645269170224,1.8309637902542866
-0.3721397796411763,-0.5896645269170224,0.43430174260940085
-0.3721397796411763,-0.5896645269170224,-1.7569862754491816
-0.3721397796411763,-0.5896645269170224,-0.6461925445306542
-0.3721397796411763,-0.5896645269170224,1.3981988382958044
-0.3721397796411763,-3.452993212445055,-0.6461925445306542
-0.3721397796411763,-3.452993212445055,1.3981988382958044
-0.3721397796411763,-3.452993212445055,1.8309637902542866
-0.3721397796411763,-3.452993212445055,0.43430174260940085
-0.3721397796411763,-3.452993212445055,-1.7569862754491816
-0.3721397796411763,1.8309637902542866,-0.6461925445306542
-0.3721397796411763,1.8309637902542866,1.3981988382958044
-0.3721397796411763,1.8309637902542866,0.43430174260940085
-0.3721397796411763,1.8309637902542866,-1.7569862754491816
-0.3721397796411763,0.43430174260940085,-0.6461925445306542
-0.3721397796411763,0.43430174260940085,1.3981988382958044
-0.3721397796411763,0.43430174260940085,-1.7569862754491816
-0.3721397796411763,-1.7569862754491816,-0.6461925445306542
-0.3721397796411763,-1.7569862754491816,1.3981988382958044
-0.3721397796411763,-0.6461925445306542,1.3981988382958044
0.3187008507215496,0.4049794561941445,-0.5896645269170224
0.3187008507215496,0.4049794561941445,-3.452993212445055
0.3187008507215496,0.4049794561941445,1.8309637902542866
0.3187008507215496,0.4049794561941445,0.43430174260940085
0.3187008507215496,0.4049794561941445,-1.7569862754491816
0.3187008507215496,0.4049794561941445,-0.6461925445306542
0.3187008507215496,0.4049794561941445,1.3981988382958044
0.3187008507215496,-0.5896645269170224,-3.452993212445055
0.3187008507215496,-0.5896645269170224,1.8309637902542866
0.3187008507215496,-0.5896645269170224,0.43430174260940085
0.3187008507215496,-0.5896645269170224,-1.7569862754491816
0.3187008507215496,-0.5896645269170224,-0.6461925445306542
0.3187008507215496,-0.5896645269170224,1.3981988382958044
0.3187008507215496,-3.452993212445055,-0.6461925445306542
0.3187008507215496,-3.452993212445055,1.3981988382958044
0.3187008507215496,-3.452993212445055,1.8309637902542866
0.3187008507215496,-3.452993212445055,0.43430174260940085
0.3187008507215496,-3.452993212445055,-1.7569862754491816
0.3187008507215496,1.8309637902542866,-0.6461925445306542
0.3187008507215496,1.8309637902542866,1.3981988382958044
0.3187008507215496,1.8309637902542866,0.43430174260940085
0.3187008507215496,1.8309637902542866,-1.7569862754491816
0.3187008507215496,0.43430174260940085,-0.6461925445306542
0.3187008507215496,0.43430174260940085,1.3981988382958044
0.3187008507215496,0.43430174260940085,-1.7569862754491816
0.3187008507215496,-1.7569862754491816,-0.6461925445306542
0.3187008507215496,-1.7569862754491816,1.3981988382958044
0.3187008507215496,-0.6461925445306542,1.3981988382958044
0.4049794561941445,-0.5896645269170224,-3.452993212445055
0.4049794561941445,-0.5896645269170224,1.8309637902542866
0.4049794561941445,-0.5896645269170224,0.43430174260940085
0.4049794561941445,-0.5896645269170224,-1.7569862754491816
0.4049794561941445,-0.5896645269170224,-0.6461925445306542
0.4049794561941445,-0.5896645269170224,1.3981988382958044
0.4049794561941445,-3.452993212445055,-0.6461925445306542
0.4049794561941445,-3.452993212445055,1.3981988382958044
0.4049794561941445,-3.452993212445055,1.8309637902542866
0.4049794561941445,-3.452993212445055,0.43430174260940085
0.4049794561941445,-3.452993212445055,-1.7569862754491816
0.4049794561941445,1.8309637902542866,-0.6461925445306542
0.4049794561941445,1.8309637902542866,1.3981988382958044
0.4049794561941445,1.8309637902542866,0.43430174260940085
0.4049794561941445,1.8309637902542866,-1.7569862754491816
0.4049794561941445,0.43430174260940085,-0.6461925445306542
0.4049794561941445,0.43430174260940085,1.3981988382958044
0.4049794561941445,0.43430174260940085,-1.7569862754491816
0.4049794561941445,-1.7569862754491816,-0.6461925445306542
0.4049794561941445,-1.7569862754491816,1.3981988382958044
0.4049794561941445,-0.6461925445306542,1.3981988382958044
-0.5896645269170224,-3.452993212445055,-0.6461925445306542
-0.5896645269170224,-3.452993212445055,1.3981988382958044
-0.5896645269170224,-3.452993212445055,1.8309637902542866
-0.5896645269170224,-3.452993212445055,0.43430174260940085
-0.5896645269170224,-3.452993212445055,-1.7569862754491816
-0.5896645269170224,1.8309637902542866,-0.6461925445306542
-0.5896645269170224,1.8309637902542866,1.3981988382958044
-0.5896645269170224,1.8309637902542866,0.43430174260940085
-0.5896645269170224,1.8309637902542866,-1.7569862754491816
-0.5896645269170224,0.43430174260940085,-0.6461925445306542
-0.5896645269170224,0.43430174260940085,1.3981988382958044
-0.5896645269170224,0.43430174260940085,-1.7569862754491816
-0.5896645269170224,-1.7569862754491816,-0.6461925445306542
-0.5896645269170224,-1.7569862754491816,1.3981988382958044
-0.5896645269170224,-0.6461925445306542,1.3981988382958044
-3.452993212445055,-0.6461925445306542,1.3981988382958044
-3.452993212445055,1.8309637902542866,-0.6461925445306542
-3.452993212445055,1.8309637902542866,1.3981988382958044
-3.452993212445055,1.8309637902542866,0.43430174260940085
-3.452993212445055,1.8309637902542866,-1.7569862754491816
-3.452993212445055,0.43430174260940085,-0.6461925445306542
-3.452993212445055,0.43430174260940085,1.3981988382958044
-3.452993212445055,0.43430174260940085,-1.7569862754491816
-3.452993212445055,-1.7569862754491816,-0.6461925445306542
-3.452993212445055,-1.7569862754491816,1.3981988382958044
1.8309637902542866,-0.6461925445306542,1.3981988382958044
1.8309637902542866,0.43430174260940085,-0.6461925445306542
1.8309637902542866,0.43430174260940085,1.3981988382958044
1.8309637902542866,0.43430174260940085,-1.7569862754491816
1.8309637902542866,-1.7569862754491816,-0.6461925445306542
1.8309637902542866,-1.7569862754491816,1.3981988382958044
0.43430174260940085,-0.6461925445306542,1.3981988382958044
0.43430174260940085,-1.7569862754491816,-0.6461925445306542
0.43430174260940085,-1.7569862754491816,1.3981988382958044
-1.7569862754491816,-0.6461925445306542,1.3981988382958044
