0,1,2
-2.3725008596610513,-2.284645287855313,-0.12357797958794789
-2.3725008596610513,-2.284645287855313,-1.7985411724885227
-2.3725008596610513,-2.284645287855313,1.3173919566677492
-2.3725008596610513,-2.284645287855313,-1.595891409026164
-2.3725008596610513,-2.284645287855313,2.2253402801689646
-2.3725008596610513,-2.284645287855313,-1.765539960449452
-2.3725008596610513,-2.284645287855313,-0.43771082096575303
-2.3725008596610513,-2.284645287855313,-0.356926351865092
-2.3725008596610513,-0.12357797958794789,-1.7985411724885227
-2.3725008596610513,-0.12357797958794789,1.3173919566677492
-2.3725008596610513,-0.12357797958794789,-1.595891409026164
-2.3725008596610513,-0.12357797958794789,2.2253402801689646
-2.3725008596610513,-0.12357797958794789,-1.765539960449452
-2.3725008596610513,-0.12357797958794789,-0.43771082096575303
-2.3725008596610513,-0.12357797958794789,-0.356926351865092
-2.3725008596610513,-1.7985411724885227,1.3173919566677492
-2.3725008596610513,-1.7985411724885227,-1.595891409026164
-2.3725008596610513,-1.7985411724885227,2.2253402801689646
-2.3725008596610513,-1.7985411724885227,-1.765539960449452
-2.3725008596610513,-1.7985411724885227,-0.43771082096575303
-2.3725008596610513,-1.7985411724885227,-0.356926351865092
-2.3725008596610513,1.3173919566677492,-0.43771082096575303
-2.3725008596610513,1.3173919566677492,-0.356926351865092
-2.3725008596610513,1.3173919566677492,-1.595891409026164
-2.3725008596610513,1.3173919566677492,2.2253402801689646
-2.3725008596610513,1.3173919566677492,-1.765539960449452
-2.3725008596610513,-1.595891409026164,-0.43771082096575303
-2.3725008596610513,-1.595891409026164,-0.356926351865092
-2.3725008596610513,-1.595891409026164,2.2253402801689646
-2.3725008596610513,-1.595891409026164,-1.765539960449452
-2.3725008596610513,2.2253402801689646,-0.43771082096575303
-2.3725008596610513,2.2253402801689646,-0.356926351865092
-2.3725008596610513,2.2253402801689646,-1.765539960449452
-2.3725008596610513,-1.765539960449452,-0.43771082096575303
-2.3725008596610513,-1.765539960449452,-0.356926351865092
-2.3725008596610513,-0.43771082096575303,-0.356926351865092
-2.284645287855313,-0.12357797958794789,-1.7985411724885227
-2.284645287855313,-0.12357797958794789,1.3173919566677492
-2.284645287855313,-0.12357797958794789,-1.595891409026164
-2.284645287855313,-0.12357797958794789,2.2253402801689646
-2.284645287855313,-0.12357797958794789,-1.765539960449452
-2.284645287855313,-0.12357797958794789,-0.43771082096575303
-2.284645287855313,-0.12357797958794789,-0.356926351865092
-2.284645287855313,-1.7985411724885227,1.3173919566677492
-2.284645287855313,-1.7985411724885227,-1.595891409026164
-2.284645287855313,-1.7985411724885227,2.2253402801689646
-2.284645287855313,-1.7985411724885227,-1.765539960449452
-2.284645287855313,-1.7985411724885227,-0.43771082096575303
-2.284645287855313,-1.7985411724885227,-0.356926351865092
-2.284645287855313,1.3173919566677492,-0.43771082096575303
-2.284645287855313,1.3173919566677492,-0.356926351865092
-2.284645287855313,1.3173919566677492,-1.595891409026164
-2.284645287855313,1.3173919566677492,2.2253402801689646
-2.284645287855313,1.3173919566677492,-1.765539960449452
-2.284645287855313,-1.595891409026164,-0.43771082096575303
-2.284645287855313,-1.595891409026164,-0.356926351865092
-2.284645287855313,-1.595891409026164,2.2253402801689646
-2.284645287855313,-1.595891409026164,-1.765539960449452
-2.284645287855313,2.2253402801689646,-0.43771082096575303
-2.284645287855313,2.2253402801689646,-0.356926351865092
-2.284645287855313,2.2253402801689646,-1.765539960449452
-2.284645287855313,-1.765539960449452,-0.43771082096575303
-2.284645287855313,-1.765539960449452,-0.356926351865092
-2.284645287855313,-0.43771082096575303,-0.356926351865092
-0.12357797958794789,-1.7985411724885227,1.3173919566677492
-0.12357797958794789,-1.7985411724885227,-1.595891409026164
-0.12357797958794789,-1.7985411724885227,2.2253402801689646
-0.12357797958794789,-1.7985411724885227,-1.765539960449452
-0.12357797958794789,-1.7985411724885227,-0.43771082096575303
-0.12357797958794789,-1.7985411724885227,-0.356926351865092
-0.12357797958794789,1.3173919566677492,-0.43771082096575303
-0.12357797958794789,1.3173919566677492,-0.356926351865092
-0.12357797958794789,1.3173919566677492,-1.595891409026164
-0.12357797958794789,1.3173919566677492,2.2253402801689646
-0.12357797958794789,1.3173919566677492,-1.765539960449452
-0.12357797958794789,-1.595891409026164,-0.43771082096575303
-0.12357797958794789,-1.595891409026164,-0.356926351865092
-0.12357797958794789,-1.595891409026164,2.2253402801689646
-0.12357797958794789,-1.595891409026164,-1.765539960449452
-0.12357797958794789,2.2253402801689646,-0.43771082096575303
-0.12357797958794789,2.2253402801689646,-0.356926351865092
-0.12357797958794789,2.2253402801689646,-1.765539960449452
-0.12357797958794789,-1.765539960449452,-0.43771082096575303
-0.12357797958794789,-1.765539960449452,-0.356926351865092
-0.12357797958794789,-0.43771082096575303,-0.356926351865092
-1.7985411724885227,1.3173919566677492,-0.43771082096575303
-1.7985411724885227,1.3173919566677492,-0.356926351865092
-1.7985411724885227,1.3173919566677492,-1.595891409026164
-1.7985411724885227,1.3173919566677492,2.2253402801689646
-1.7985411724885227,1.3173919566677492,-1.765539960449452
-1.7985411724885227,-1.595891409026164,-0.43771082096575303
-1.7985411724885227,-1.595891409026164,-0.356926351865092
-1.7985411724885227,-1.595891409026164,2.2253402801689646
-1.7985411724885227,-1.595891409026164,-1.765539960449452
-1.7985411724885227,2.2253402801689646,-0.43771082096575303
-1.7985411724885227,2.2253402801689646,-0.356926351865092
-1.7985411724885227,2.2253402801689646,-1.765539960449452
-1.7985411724885227,-1.765539960449452,-0.43771082096575303
-1.7985411724885227,-1.765539960449452,-0.356926351865092
-1.7985411724885227,-0.43771082096575303,-0.356926351865092
1.3173919566677492,-0.43771082096575303,-0.356926351865092
1.3173919566677492,-1.595891409026164,-0.43771082096575303
1.3173919566677492,-1.595891409026164,-0.356926351865092
1.3173919566677492,-1.595891409026164,2.2253402801689646
1.3173919566677492,-1.595891409026164,-1.765539960449452
1.3173919566677492,2.2253402801689646,-0.43771082096575303
1.3173919566677492,2.2253402801689646,-0.356926351865092
1.3173919566677492,2.2253402801689646,-1.765539960449452
1.3173919566677492,-1.765539960449452,-0.43771082096575303
1.3173919566677492,-1.765539960449452,-0.356926351865092
-1.595891409026164,-0.43771082096575303,-0.356926351865092
-1.595891409026164,2.2253402801689646,-0.43771082096575303
-1.595891409026164,2.2253402801689646,-0.356926351865092
-1.595891409026164,2.2253402801689646,-1.765539960449452
-1.595891409026164,-1.765539960449452,-0.43771082096575303
-1.595891409026164,-1.765539960449452,-0.356926351865092
2.2253402801689646,-0.43771082096575303,-0.356926351865092
2.2253402801689646,-1.765539960449452,-0.43771082096575303
2.2253402801689646,-1.765539960449452,-0.356926351865092
-1.765539960449452,-0.43771082096575303,-0.356926351865092
