0,1,2
2.5272439221910705,0.5072341733950366,1.1199473076128725
2.5272439221910705,0.5072341733950366,-4.404840482839429
2.5272439221910705,0.5072341733950366,1.3503573980947672
2.5272439221910705,0.5072341733950366,-3.5360042157987515
2.5272439221910705,0.5072341733950366,-3.9031459825370844
2.5272439221910705,0.5072341733950366,-4.1504936650126485
2.5272439221910705,0.5072341733950366,-2.2740689873260718
2.5272439221910705,0.5072341733950366,4.0230161004708895
2.5272439221910705,1.1199473076128725,-4.404840482839429
2.5272439221910705,1.1199473076128725,1.3503573980947672
2.5272439221910705,1.1199473076128725,-3.5360042157987515
2.5272439221910705,1.1199473076128725,-3.9031459825370844
2.5272439221910705,1.1199473076128725,-4.1504936650126485
2.5272439221910705,1.1199473076128725,-2.2740689873260718
2.5272439221910705,1.1199473076128725,4.0230161004708895
2.5272439221910705,-4.404840482839429,1.3503573980947672
2.5272439221910705,-4.404840482839429,-3.5360042157987515
2.5272439221910705,-4.404840482839429,-3.9031459825370844
2.5272439221910705,-4.404840482839429,-4.1504936650126485
2.5272439221910705,-4.404840482839429,-2.2740689873260718
2.5272439221910705,-4.404840482839429,4.0230161004708895
2.5272439221910705,1.3503573980947672,-2.2740689873260718
2.5272439221910705,1.3503573980947672,4.0230161004708895
2.5272439221910705,1.3503573980947672,-3.5360042157987515
2.5272439221910705,1.3503573980947672,-3.9031459825370844
2.5272439221910705,1.3503573980947672,-4.1504936650126485
2.5272439221910705,-3.5360042157987515,-2.2740689873260718
2.5272439221910705,-3.5360042157987515,4.0230161004708895
2.5272439221910705,-3.5360042157987515,-3.9031459825370844
2.5272439221910705,-3.5360042157987515,-4.1504936650126485
2.5272439221910705,-3.9031459825370844,-2.2740689873260718
2.5272439221910705,-3.9031459825370844,4.0230161004708895
2.5272439221910705,-3.9031459825370844,-4.1504936650126485
2.5272439221910705,-4.1504936650126485,-2.2740689873260718
2.5272439221910705,-4.1504936650126485,4.0230161004708895
2.5272439221910705,-2.2740689873260718,4.0230161004708895
0.5072341733950366,1.1199473076128725,-4.404840482839429
0.5072341733950366,1.1199473076128725,1.3503573980947672
0.5072341733950366,1.1199473076128725,-3.5360042157987515
0.5072341733950366,1.1199473076128725,-3.9031459825370844
0.5072341733950366,1.1199473076128725,-4.1504936650126485
0.5072341733950366,1.1199473076128725,-2.2740689873260718
0.5072341733950366,1.1199473076128725,4.0230161004708895
0.5072341733950366,-4.404840482839429,1.3503573980947672
0.5072341733950366,-4.404840482839429,-3.5360042157987515
0.5072341733950366,-4.404840482839429,-3.9031459825370844
0.5072341733950366,-4.404840482839429,-4.1504936650126485
0.5072341733950366,-4.404840482839429,-2.2740689873260718
0.5072341733950366,-4.404840482839429,4.0230161004708895
0.5072341733950366,1.3503573980947672,-2.2740689873260718
0.5072341733950366,1.3503573980947672,4.0230161004708895
0.5072341733950366,1.3503573980947672,-3.5360042157987515
0.5072341733950366,1.3503573980947672,-3.9031459825370844
0.5072341733950366,1.3503573980947672,-4.1504936650126485
0.5072341733950366,-3.5360042157987515,-2.2740689873260718
0.5072341733950366,-3.5360042157987515,4.0230161004708895
0.5072341733950366,-3.5360042157987515,-3.9031459825370844
0.5072341733950366,-3.5360042157987515,-4.1504936650126485
0.5072341733950366,-3.9031459825370844,-2.2740689873260718
0.5072341733950366,-3.9031459825370844,4.0230161004708895
0.5072341733950366,-3.9031459825370844,-4.1504936650126485
0.5072341733950366,-4.1504936650126485,-2.2740689873260718
0.5072341733950366,-4.1504936650126485,4.0230161004708895
0.5072341733950366,-2.2740689873260718,4.0230161004708895
1.1199473076128725,-4.404840482839429,1.3503573980947672
1.1199473076128725,-4.404840482839429,-3.5360042157987515
1.1199473076128725,-4.404840482839429,-3.9031459825370844
1.1199473076128725,-4.404840482839429,-4.1504936650126485
1.1199473076128725,-4.404840482839429,-2.2740689873260718
1.1199473076128725,-4.404840482839429,4.0230161004708895
1.1199473076128725,1.3503573980947672,-2.2740689873260718
1.1199473076128725,1.3503573980947672,4.0230161004708895
1.1199473076128725,1.3503573980947672,-3.5360042157987515
1.1199473076128725,1.3503573980947672,-3.9031459825370844
1.1199473076128725,1.3503573980947672,-4.1504936650126485
1.1199473076128725,-3.5360042157987515,-2.2740689873260718
1.1199473076128725,-3.5360042157987515,4.0230161004708895
1.1199473076128725,-3.5360042157987515,-3.9031459825370844
1.1199473076128725,-3.5360042157987515,-4.1504936650126485
1.1199473076128725,-3.9031459825370844,-2.2740689873260718
1.1199473076128725,-3.9031459825370844,4.0230161004708895
1.1199473076128725,-3.9031459825370844,-4.1504936650126485
1.1199473076128725,-4.1504936650126485,-2.2740689873260718
1.1199473076128725,-4.1504936650126485,4.0230161004708895
1.1199473076128725,-2.2740689873260718,4.0230161004708895
-4.404840482839429,1.3503573980947672,-2.2740689873260718
-4.404840482839429,1.3503573980947672,4.0230161004708895
-4.404840482839429,1.3503573980947672,-3.5360042157987515
-4.404840482839429,1.3503573980947672,-3.9031459825370844
-4.404840482839429,1.3503573980947672,-4.1504936650126485
-4.404840482839429,-3.5360042157987515,-2.2740689873260718
-4.404840482839429,-3.5360042157987515,4.0230161004708895
-4.404840482839429,-3.5360042157987515,-3.9031459825370844
-4.404840482839429,-3.5360042157987515,-4.1504936650126485
-4.404840482839429,-3.9031459825370844,-2.2740689873260718
-4.404840482839429,-3.9031459825370844,4.0230161004708895
-4.404840482839429,-3.9031459825370844,-4.1504936650126485
-4.404840482839429,-4.1504936650126485,-2.2740689873260718
-4.404840482839429,-4.1504936650126485,4.0230161004708895
-4.404840482839429,-2.2740689873260718,4.0230161004708895
1.3503573980947672,-2.2740689873260718,4.0230161004708895
1.3503573980947672,-3.5360042157987515,-2.2740689873260718
1.3503573980947672,-3.5360042157987515,4.0230161004708895
1.3503573980947672,-3.5360042157987515,-3.9031459825370844
1.3503573980947672,-3.5360042157987515,-4.1504936650126485
1.3503573980947672,-3.9031459825370844,-2.2740689873260718
1.3503573980947672,-3.9031459825370844,4.0230161004708895
1.3503573980947672,-3.9031459825370844,-4.1504936650126485
1.3503573980947672,-4.1504936650126485,-2.2740689873260718
1.3503573980947672,-4.1504936650126485,4.0230161004708895
-3.5360042157987515,-2.2740689873260718,4.0230161004708895
-3.5360042157987515,-3.9031459825370844,-2.2740689873260718
-3.5360042157987515,-3.9031459825370844,4.0230161004708895
-3.5360042157987515,-3.9031459825370844,-4.1504936650126485
-3.5360042157987515,-4.1504936650126485,-2.2740689873260718
-3.5360042157987515,-4.1504936650126485,4.0230161004708895
-3.9031459825370844,-2.2740689873260718,4.0230161004708895
-3.9031459825370844,-4.1504936650126485,-2.2740689873260718
-3.9031459825370844,-4.1504936650126485,4.0230161004708895
-4.1504936650126485,-2.2740689873260718,4.0230161004708895
