0,1,2
0.06246791294297754,2.3730761298808885,0.3619166924618874
0.06246791294297754,2.3730761298808885,-1.706076883162134
0.06246791294297754,2.3730761298808885,-0.555035681095254
0.06246791294297754,2.3730761298808885,1.8924169560793886
0.06246791294297754,2.3730761298808885,-3.2870801110587227
0.06246791294297754,2.3730761298808885,-3.3203803101097527
0.06246791294297754,2.3730761298808885,1.6661624546502256
0.06246791294297754,2.3730761298808885,-0.7743002205726744
0.06246791294297754,0.3619166924618874,-1.706076883162134
0.06246791294297754,0.3619166924618874,-0.555035681095254
0.06246791294297754,0.3619166924618874,1.8924169560793886
0.06246791294297754,0.3619166924618874,-3.2870801110587227
0.06246791294297754,0.3619166924618874,-3.3203803101097527
0.06246791294297754,0.3619166924618874,1.6661624546502256
0.06246791294297754,0.3619166924618874,-0.7743002205726744
0.06246791294297754,-1.706076883162134,-0.555035681095254
0.06246791294297754,-1.706076883162134,1.8924169560793886
0.06246791294297754,-1.706076883162134,-3.2870801110587227
0.06246791294297754,-1.706076883162134,-3.3203803101097527
0.06246791294297754,-1.706076883162134,1.6661624546502256
0.06246791294297754,-1.706076883162134,-0.7743002205726744
0.06246791294297754,-0.555035681095254,1.6661624546502256
0.06246791294297754,-0.555035681095254,-0.7743002205726744
0.06246791294297754,-0.555035681095254,1.8924169560793886
0.06246791294297754,-0.555035681095254,-3.2870801110587227
0.06246791294297754,-0.555035681095254,-3.3203803101097527
0.06246791294297754,1.8924169560793886,1.6661624546502256
0.06246791294297754,1.8924169560793886,-0.7743002205726744
0.06246791294297754,1.8924169560793886,-3.2870801110587227
0.06246791294297754,1.8924169560793886,-3.3203803101097527
0.06246791294297754,-3.2870801110587227,1.6661624546502256
0.06246791294297754,-3.2870801110587227,-0.7743002205726744
0.06246791294297754,-3.2870801110587227,-3.3203803101097527
0.06246791294297754,-3.3203803101097527,1.6661624546502256
0.06246791294297754,-3.3203803101097527,-0.7743002205726744
0.06246791294297754,1.6661624546502256,-0.7743002205726744
2.3730761298808885,0.3619166924618874,-1.706076883162134
2.3730761298808885,0.3619166924618874,-0.555035681095254
2.3730761298808885,0.3619166924618874,1.8924169560793886
2.3730761298808885,0.3619166924618874,-3.2870801110587227
2.3730761298808885,0.3619166924618874,-3.3203803101097527
2.3730761298808885,0.3619166924618874,1.6661624546502256
2.3730761298808885,0.3619166924618874,-0.7743002205726744
2.3730761298808885,-1.706076883162134,-0.555035681095254
2.3730761298808885,-1.706076883162134,1.8924169560793886
2.3730761298808885,-1.706076883162134,-3.2870801110587227
2.3730761298808885,-1.706076883162134,-3.3203803101097527
2.3730761298808885,-1.706076883162134,1.6661624546502256
2.3730761298808885,-1.706076883162134,-0.7743002205726744
2.3730761298808885,-0.555035681095254,1.6661624546502256
2.3730761298808885,-0.555035681095254,-0.7743002205726744
2.3730761298808885,-0.555035681095254,1.8924169560793886
2.3730761298808885,-0.555035681095254,-3.2870801110587227
2.3730761298808885,-0.555035681095254,-3.3203803101097527
2.3730761298808885,1.8924169560793886,1.6661624546502256
2.3730761298808885,1.8924169560793886,-0.7743002205726744
2.3730761298808885,1.8924169560793886,-3.2870801110587227
2.3730761298808885,1.8924169560793886,-3.3203803101097527
2.3730761298808885,-3.2870801110587227,1.6661624546502256
2.3730761298808885,-3.2870801110587227,-0.7743002205726744
2.3730761298808885,-3.2870801110587227,-3.3203803101097527
2.3730761298808885,-3.3203803101097527,1.6661624546502256
2.3730761298808885,-3.3203803101097527,-0.7743002205726744
2.3730761298808885,1.6661624546502256,-0.7743002205726744
0.3619166924618874,-1.706076883162134,-0.555035681095254
0.3619166924618874,-1.706076883162134,1.8924169560793886
0.3619166924618874,-1.706076883162134,-3.2870801110587227
0.3619166924618874,-1.706076883162134,-3.3203803101097527
0.3619166924618874,-1.706076883162134,1.6661624546502256
0.3619166924618874,-1.706076883162134,-0.7743002205726744
0.3619166924618874,-0.555035681095254,1.6661624546502256
0.3619166924618874,-0.555035681095254,-0.7743002205726744
0.3619166924618874,-0.555035681095254,1.8924169560793886
0.3619166924618874,-0.555035681095254,-3.2870801110587227
0.3619166924618874,-0.555035681095254,-3.3203803101097527
0.3619166924618874,1.8924169560793886,1.6661624546502256
0.3619166924618874,1.8924169560793886,-0.7743002205726744
0.3619166924618874,1.8924169560793886,-3.2870801110587227
0.3619166924618874,1.8924169560793886,-3.3203803101097527
0.3619166924618874,-3.2870801110587227,1.6661624546502256
0.3619166924618874,-3.2870801110587227,-0.7743002205726744
0.3619166924618874,-3.2870801110587227,-3.3203803101097527
0.3619166924618874,-3.3203803101097527,1.6661624546502256
0.3619166924618874,-3.3203803101097527,-0.7743002205726744
0.3619166924618874,1.6661624546502256,-0.7743002205726744
-1.706076883162134,-0.555035681095254,1.6661624546502256
-1.706076883162134,-0.555035681095254,-0.7743002205726744
-1.706076883162134,-0.555035681095254,1.8924169560793886
-1.706076883162134,-0.555035681095254,-3.2870801110587227
-1.706076883162134,-0.555035681095254,-3.3203803101097527
-1.706076883162134,1.8924169560793886,1.6661624546502256
-1.706076883162134,1.8924169560793886,-0.7743002205726744
-1.706076883162134,1.8924169560793886,-3.2870801110587227
-1.706076883162134,1.8924169560793886,-3.3203803101097527
-1.706076883162134,-3.2870801110587227,1.6661624546502256
-1.706076883162134,-3.2870801110587227,-0.7743002205726744
-1.706076883162134,-3.2870801110587227,-3.3203803101097527
-1.706076883162134,-3.3203803101097527,1.6661624546502256
-1.706076883162134,-3.3203803101097527,-0.7743002205726744
-1.706076883162134,1.6661624546502256,-0.7743002205726744
-0.555035681095254,1.6661624546502256,-0.7743002205726744
-0.555035681095254,1.8924169560793886,1.6661624546502256
-0.555035681095254,1.8924169560793886,-0.7743002205726744
-0.555035681095254,1.8924169560793886,-3.2870801110587227
-0.555035681095254,1.8924169560793886,-3.3203803101097527
-0.555035681095254,-3.2870801110587227,1.6661624546502256
-0.555035681095254,-3.2870801110587227,-0.7743002205726744
-0.555035681095254,-3.2870801110587227,-3.3203803101097527
-0.555035681095254,-3.3203803101097527,1.6661624546502256
-0.555035681095254,-3.3203803101097527,-0.7743002205726744
1.8924169560793886,1.6661624546502256,-0.7743002205726744
1.8924169560793886,-3.2870801110587227,1.6661624546502256
1.8924169560793886,-3.2870801110587227,-0.7743002205726744
1.8924169560793886,-3.2870801110587227,-3.3203803101097527
1.8924169560793886,-3.3203803101097527,1.6661624546502256
1.8924169560793886,-3.3203803101097527,-0.7743002205726744
-3.2870801110587227,1.6661624546502256,-0.7743002205726744
-3.2870801110587227,-3.3203803101097527,1.6661624546502256
-3.2870801110587227,-3.3203803101097527,-0.7743002205726744
-3.3203803101097527,1.6661624546502256,-0.7743002205726744
