0,1,2
2.652171029177482,0.9560855909356417,-0.479169370342195
2.652171029177482,0.9560855909356417,-1.6656846809274668
2.652171029177482,0.9560855909356417,-2.911991665156096
2.652171029177482,0.9560855909356417,-1.5023282871663708
2.652171029177482,0.9560855909356417,2.393748533999949
2.652171029177482,0.9560855909356417,-1.9223149507278376
2.652171029177482,0.9560855909356417,0.06663484287577173
2.652171029177482,0.9560855909356417,-1.0441051973595405
2.652171029177482,-0.479169370342195,-1.6656846809274668
2.652171029177482,-0.479169370342195,-2.911991665156096
2.652171029177482,-0.479169370342195,-1.5023282871663708
2.652171029177482,-0.479169370342195,2.393748533999949
2.652171029177482,-0.479169370342195,-1.9223149507278376
2.652171029177482,-0.479169370342195,0.06663484287577173
2.652171029177482,-0.479169370342195,-1.0441051973595405
2.652171029177482,-1.6656846809274668,-2.911991665156096
2.652171029177482,-1.6656846809274668,-1.5023282871663708
2.652171029177482,-1.6656846809274668,2.393748533999949
2.652171029177482,-1.6656846809274668,-1.9223149507278376
2.652171029177482,-1.6656846809274668,0.06663484287577173
2.652171029177482,-1.6656846809274668,-1.0441051973595405
2.652171029177482,-2.911991665156096,0.06663484287577173
2.652171029177482,-2.911991665156096,-1.0441051973595405
2.652171029177482,-2.911991665156096,-1.5023282871663708
2.652171029177482,-2.911991665156096,2.393748533999949
2.652171029177482,-2.911991665156096,-1.9223149507278376
2.652171029177482,-1.5023282871663708,0.06663484287577173
2.652171029177482,-1.5023282871663708,-1.0441051973595405
2.652171029177482,-1.5023282871663708,2.393748533999949
2.652171029177482,-1.5023282871663708,-1.9223149507278376
2.652171029177482,2.393748533999949,0.06663484287577173
2.652171029177482,2.393748533999949,-1.0441051973595405
2.652171029177482,2.393748533999949,-1.9223149507278376
2.652171029177482,-1.9223149507278376,0.06663484287577173
2.652171029177482,-1.9223149507278376,-1.0441051973595405
2.652171029177482,0.06663484287577173,-1.0441051973595405
0.9560855909356417,-0.479169370342195,-1.6656846809274668
0.9560855909356417,-0.479169370342195,-2.911991665156096
0.9560855909356417,-0.479169370342195,-1.5023282871663708
0.9560855909356417,-0.479169370342195,2.393748533999949
0.9560855909356417,-0.479169370342195,-1.9223149507278376
0.9560855909356417,-0.479169370342195,0.06663484287577173
0.9560855909356417,-0.479169370342195,-1.0441051973595405
0.9560855909356417,-1.6656846809274668,-2.911991665156096
0.9560855909356417,-1.6656846809274668,-1.5023282871663708
0.9560855909356417,-1.6656846809274668,2.393748533999949
0.9560855909356417,-1.6656846809274668,-1.9223149507278376
0.9560855909356417,-1.6656846809274668,0.06663484287577173
0.9560855909356417,-1.6656846809274668,-1.0441051973595405
0.9560855909356417,-2.911991665156096,0.06663484287577173
0.9560855909356417,-2.911991665156096,-1.0441051973595405
0.9560855909356417,-2.911991665156096,-1.5023282871663708
0.9560855909356417,-2.911991665156096,2.393748533999949
0.9560855909356417,-2.911991665156096,-1.9223149507278376
0.9560855909356417,-1.5023282871663708,0.06663484287577173
0.9560855909356417,-1.5023282871663708,-1.0441051973595405
0.9560855909356417,-1.5023282871663708,2.393748533999949
0.9560855909356417,-1.5023282871663708,-1.9223149507278376
0.9560855909356417,2.393748533999949,0.06663484287577173
0.9560855909356417,2.393748533999949,-1.0441051973595405
0.9560855909356417,2.393748533999949,-1.9223149507278376
0.9560855909356417,-1.9223149507278376,0.06663484287577173
0.9560855909356417,-1.9223149507278376,-1.0441051973595405
0.9560855909356417,0.06663484287577173,-1.0441051973595405
-0.479169370342195,-1.6656846809274668,-2.911991665156096
-0.479169370342195,-1.6656846809274668,-1.5023282871663708
-0.479169370342195,-1.6656846809274668,2.393748533999949
-0.479169370342195,-1.6656846809274668,-1.9223149507278376
-0.479169370342195,-1.6656846809274668,0.06663484287577173
-0.479169370342195,-1.6656846809274668,-1.0441051973595405
-0.479169370342195,-2.911991665156096,0.06663484287577173
-0.479169370342195,-2.911991665156096,-1.0441051973595405
-0.479169370342195,-2.911991665156096,-1.5023282871663708
-0.479169370342195,-2.911991665156096,2.393748533999949
-0.479169370342195,-2.911991665156096,-1.9223149507278376
-0.479169370342195,-1.5023282871663708,0.06663484287577173
-0.479169370342195,-1.5023282871663708,-1.0441051973595405
-0.479169370342195,-1.5023282871663708,2.393748533999949
-0.479169370342195,-1.5023282871663708,-1.9223149507278376
-0.479169370342195,2.393748533999949,0.06663484287577173
-0.479169370342195,2.393748533999949,-1.0441051973595405
-0.479169370342195,2.393748533999949,-1.9223149507278376
-0.479169370342195,-1.9223149507278376,0.06663484287577173
-0.479169370342195,-1.9223149507278376,-1.0441051973595405
-0.479169370342195,0.06663484287577173,-1.0441051973595405
-1.6656846809274668,-2.911991665156096,0.06663484287577173
-1.6656846809274668,-2.911991665156096,-1.0441051973595405
-1.6656846809274668,-2.911991665156096,-1.5023282871663708
-1.6656846809274668,-2.911991665156096,2.393748533999949
-1.6656846809274668,-2.911991665156096,-1.9223149507278376
-1.6656846809274668,-1.5023282871663708,0.06663484287577173
-1.6656846809274668,-1.5023282871663708,-1.0441051973595405
-1.6656846809274668,-1.5023282871663708,2.393748533999949
-1.6656846809274668,-1.5023282871663708,-1.9223149507278376
-1.6656846809274668,2.393748533999949,0.06663484287577173
-1.6656846809274668,2.393748533999949,-1.0441051973595405
-1.6656846809274668,2.393748533999949,-1.9223149507278376
-1.6656846809274668,-1.9223149507278376,0.06663484287577173
-1.6656846809274668,-1.9223149507278376,-1.0441051973595405
-1.6656846809274668,0.06663484287577173,-1.0441051973595405
-2.911991665156096,0.06663484287577173,-1.0441051973595405
-2.911991665156096,-1.5023282871663708,0.06663484287577173
-2.911991665156096,-1.5023282871663708,-1.0441051973595405
-2.911991665156096,-1.5023282871663708,2.393748533999949
-2.911991665156096,-1.5023282871663708,-1.9223149507278376
-2.911991665156096,2.393748533999949,0.06663484287577173
-2.911991665156096,2.393748533999949,-1.0441051973595405
-2.911991665156096,2.393748533999949,-1.9223149507278376
-2.911991665156096,-1.9223149507278376,0.06663484287577173
-2.911991665156096,-1.9223149507278376,-1.0441051973595405
-1.5023282871663708,0.06663484287577173,-1.0441051973595405
-1.5023282871663708,2.393748533999949,0.06663484287577173
-1.5023282871663708,2.393748533999949,-1.0441051973595405
-1.5023282871663708,2.393748533999949,-1.9223149507278376
-1.5023282871663708,-1.9223149507278376,0.06663484287577173
-1.5023282871663708,-1.9223149507278376,-1.0441051973595405
2.393748533999949,0.06663484287577173,-1.0441051973595405
2.393748533999949,-1.9223149507278376,0.06663484287577173
2.393748533999949,-1.9223149507278376,-1.0441051973595405
-1.9223149507278376,0.06663484287577173,-1.0441051973595405
