0,1,2
1.4905543200845996,5.7513899393737775,2.2360569823997767
1.4905543200845996,5.7513899393737775,-1.5787572872751077
1.4905543200845996,5.7513899393737775,-1.1083543048924613
1.4905543200845996,5.7513899393737775,1.670657829759546
1.4905543200845996,5.7513899393737775,0.08734127678846813
1.4905543200845996,5.7513899393737775,-4.48467564427225
1.4905543200845996,5.7513899393737775,-2.15515895771375
1.4905543200845996,5.7513899393737775,-2.953395963385263
1.4905543200845996,2.2360569823997767,-1.5787572872751077
1.4905543200845996,2.2360569823997767,-1.1083543048924613
1.4905543200845996,2.2360569823997767,1.670657829759546
1.4905543200845996,2.2360569823997767,0.08734127678846813
1.4905543200845996,2.2360569823997767,-4.48467564427225
1.4905543200845996,2.2360569823997767,-2.15515895771375
1.4905543200845996,2.2360569823997767,-2.953395963385263
1.4905543200845996,-1.5787572872751077,-1.1083543048924613
1.4905543200845996,-1.5787572872751077,1.670657829759546
1.4905543200845996,-1.5787572872751077,0.08734127678846813
1.4905543200845996,-1.5787572872751077,-4.48467564427225
1.4905543200845996,-1.5787572872751077,-2.15515895771375
1.4905543200845996,-1.5787572872751077,-2.953395963385263
1.4905543200845996,-1.1083543048924613,-2.15515895771375
1.4905543200845996,-1.1083543048924613,-2.953395963385263
1.4905543200845996,-1.1083543048924613,1.670657829759546
1.4905543200845996,-1.1083543048924613,0.08734127678846813
1.4905543200845996,-1.1083543048924613,-4.48467564427225
1.4905543200845996,1.670657829759546,-2.15515895771375
1.4905543200845996,1.670657829759546,-2.953395963385263
1.4905543200845996,1.670657829759546,0.08734127678846813
1.4905543200845996,1.670657829759546,-4.48467564427225
1.4905543200845996,0.08734127678846813,-2.15515895771375
1.4905543200845996,0.08734127678846813,-2.953395963385263
1.4905543200845996,0.08734127678846813,-4.48467564427225
1.4905543200845996,-4.48467564427225,-2.15515895771375
1.4905543200845996,-4.48467564427225,-2.953395963385263
1.4905543200845996,-2.15515895771375,-2.953395963385263
5.7513899393737775,2.2360569823997767,-1.5787572872751077
5.7513899393737775,2.2360569823997767,-1.1083543048924613
5.7513899393737775,2.2360569823997767,1.670657829759546
5.7513899393737775,2.2360569823997767,0.08734127678846813
5.7513899393737775,2.2360569823997767,-4.48467564427225
5.7513899393737775,2.2360569823997767,-2.15515895771375
5.7513899393737775,2.2360569823997767,-2.953395963385263
5.7513899393737775,-1.5787572872751077,-1.1083543048924613
5.7513899393737775,-1.5787572872751077,1.670657829759546
5.7513899393737775,-1.5787572872751077,0.08734127678846813
5.7513899393737775,-1.5787572872751077,-4.48467564427225
5.7513899393737775,-1.5787572872751077,-2.15515895771375
5.7513899393737775,-1.5787572872751077,-2.953395963385263
5.7513899393737775,-1.1083543048924613,-2.15515895771375
5.7513899393737775,-1.1083543048924613,-2.953395963385263
5.7513899393737775,-1.1083543048924613,1.670657829759546
5.7513899393737775,-1.1083543048924613,0.08734127678846813
5.7513899393737775,-1.1083543048924613,-4.48467564427225
5.7513899393737775,1.670657829759546,-2.15515895771375
5.7513899393737775,1.670657829759546,-2.953395963385263
5.7513899393737775,1.670657829759546,0.08734127678846813
5.7513899393737775,1.670657829759546,-4.48467564427225
5.7513899393737775,0.08734127678846813,-2.15515895771375
5.7513899393737775,0.08734127678846813,-2.953395963385263
5.7513899393737775,0.08734127678846813,-4.48467564427225
5.7513899393737775,-4.48467564427225,-2.15515895771375
5.7513899393737775,-4.48467564427225,-2.953395963385263
5.7513899393737775,-2.15515895771375,-2.953395963385263
2.2360569823997767,-1.5787572872751077,-1.1083543048924613
2.2360569823997767,-1.5787572872751077,1.670657829759546
2.2360569823997767,-1.5787572872751077,0.08734127678846813
2.2360569823997767,-1.5787572872751077,-4.48467564427225
2.2360569823997767,-1.5787572872751077,-2.15515895771375
2.2360569823997767,-1.5787572872751077,-2.953395963385263
2.2360569823997767,-1.1083543048924613,-2.15515895771375
2.2360569823997767,-1.1083543048924613,-2.953395963385263
2.2360569823997767,-1.1083543048924613,1.670657829759546
2.2360569823997767,-1.1083543048924613,0.08734127678846813
2.2360569823997767,-1.1083543048924613,-4.48467564427225
2.2360569823997767,1.670657829759546,-2.15515895771375
2.2360569823997767,1.670657829759546,-2.953395963385263
2.2360569823997767,1.670657829759546,0.08734127678846813
2.2360569823997767,1.670657829759546,-4.48467564427225
2.2360569823997767,0.08734127678846813,-2.15515895771375
2.2360569823997767,0.08734127678846813,-2.953395963385263
2.2360569823997767,0.08734127678846813,-4.48467564427225
2.2360569823997767,-4.48467564427225,-2.15515895771375
2.2360569823997767,-4.48467564427225,-2.953395963385263
2.2360569823997767,-2.15515895771375,-2.953395963385263
-1.5787572872751077,-1.1083543048924613,-2.15515895771375
-1.5787572872751077,-1.1083543048924613,-2.953395963385263
-1.5787572872751077,-1.1083543048924613,1.670657829759546
-1.5787572872751077,-1.1083543048924613,0.08734127678846813
-1.5787572872751077,-1.1083543048924613,-4.48467564427225
-1.5787572872751077,1.670657829759546,-2.15515895771375
-1.5787572872751077,1.670657829759546,-2.953395963385263
-1.5787572872751077,1.670657829759546,0.08734127678846813
-1.5787572872751077,1.670657829759546,-4.48467564427225
-1.5787572872751077,0.08734127678846813,-2.15515895771375
-1.5787572872751077,0.08734127678846813,-2.953395963385263
-1.5787572872751077,0.08734127678846813,-4.48467564427225
-1.5787572872751077,-4.48467564427225,-2.15515895771375
-1.5787572872751077,-4.48467564427225,-2.953395963385263
-1.5787572872751077,-2.15515895771375,-2.953395963385263
-1.1083543048924613,-2.15515895771375,-2.953395963385263
-1.1083543048924613,1.670657829759546,-2.15515895771375
-1.1083543048924613,1.670657829759546,-2.953395963385263
-1.1083543048924613,1.670657829759546,0.08734127678846813
-1.1083543048924613,1.670657829759546,-4.48467564427225
-1.1083543048924613,0.08734127678846813,-2.15515895771375
-1.1083543048924613,0.08734127678846813,-2.953395963385263
-1.1083543048924613,0.08734127678846813,-4.48467564427225
-1.1083543048924613,-4.48467564427225,-2.15515895771375
-1.1083543048924613,-4.48467564427225,-2.953395963385263
1.670657829759546,-2.15515895771375,-2.953395963385263
1.670657829759546,0.08734127678846813,-2.15515895771375
1.670657829759546,0.08734127678846813,-2.953395963385263
1.670657829759546,0.08734127678846813,-4.48467564427225
1.670657829759546,-4.48467564427225,-2.15515895771375
1.670657829759546,-4.48467564427225,-2.953395963385263
0.08734127678846813,-2.15515895771375,-2.953395963385263
0.08734127678846813,-4.48467564427225,-2.15515895771375
0.08734127678846813,-4.48467564427225,-2.953395963385263
-4.48467564427225,-2.15515895771375,-2.953395963385263
