0,1,2
0.4197974782573199,-0.9417727098992095,-2.396566322715176
0.4197974782573199,-0.9417727098992095,2.5077338338211295
0.4197974782573199,-0.9417727098992095,-3.0108543851602834
0.4197974782573199,-0.9417727098992095,1.8751142392606037
0.4197974782573199,-0.9417727098992095,-1.7461447172212095
0.4197974782573199,-0.9417727098992095,2.9888569754150804
0.4197974782573199,-0.9417727098992095,1.3285944517736
0.4197974782573199,-0.9417727098992095,-0.23044503277003703
0.4197974782573199,-2.396566322715176,2.5077338338211295
0.4197974782573199,-2.396566322715176,-3.0108543851602834
0.4197974782573199,-2.396566322715176,1.8751142392606037
0.4197974782573199,-2.396566322715176,-1.7461447172212095
0.4197974782573199,-2.396566322715176,2.9888569754150804
0.4197974782573199,-2.396566322715176,1.3285944517736
0.4197974782573199,-2.396566322715176,-0.23044503277003703
0.4197974782573199,2.5077338338211295,-3.0108543851602834
0.4197974782573199,2.5077338338211295,1.8751142392606037
0.4197974782573199,2.5077338338211295,-1.7461447172212095
0.4197974782573199,2.5077338338211295,2.9888569754150804
0.4197974782573199,2.5077338338211295,1.3285944517736
0.4197974782573199,2.5077338338211295,-0.23044503277003703
0.4197974782573199,-3.0108543851602834,1.3285944517736
0.4197974782573199,-3.0108543851602834,-0.23044503277003703
0.4197974782573199,-3.0108543851602834,1.8751142392606037
0.4197974782573199,-3.0108543851602834,-1.7461447172212095
0.4197974782573199,-3.0108543851602834,2.9888569754150804
0.4197974782573199,1.8751142392606037,1.3285944517736
0.4197974782573199,1.8751142392606037,-0.23044503277003703
0.4197974782573199,1.8751142392606037,-1.7461447172212095
0.4197974782573199,1.8751142392606037,2.9888569754150804
0.4197974782573199,-1.7461447172212095,1.3285944517736
0.4197974782573199,-1.7461447172212095,-0.23044503277003703
0.4197974782573199,-1.7461447172212095,2.9888569754150804
0.4197974782573199,2.9888569754150804,1.3285944517736
0.4197974782573199,2.9888569754150804,-0.23044503277003703
0.4197974782573199,1.3285944517736,-0.23044503277003703
-0.9417727098992095,-2.396566322715176,2.5077338338211295
-0.9417727098992095,-2.396566322715176,-3.0108543851602834
-0.9417727098992095,-2.396566322715176,1.8751142392606037
-0.9417727098992095,-2.396566322715176,-1.7461447172212095
-0.9417727098992095,-2.396566322715176,2.9888569754150804
-0.9417727098992095,-2.396566322715176,1.3285944517736
-0.9417727098992095,-2.396566322715176,-0.23044503277003703
-0.9417727098992095,2.5077338338211295,-3.0108543851602834
-0.9417727098992095,2.5077338338211295,1.8751142392606037
-0.9417727098992095,2.5077338338211295,-1.7461447172212095
-0.9417727098992095,2.5077338338211295,2.9888569754150804
-0.9417727098992095,2.5077338338211295,1.3285944517736
-0.9417727098992095,2.5077338338211295,-0.23044503277003703
-0.9417727098992095,-3.0108543851602834,1.3285944517736
-0.9417727098992095,-3.0108543851602834,-0.23044503277003703
-0.9417727098992095,-3.0108543851602834,1.8751142392606037
-0.9417727098992095,-3.0108543851602834,-1.7461447172212095
-0.9417727098992095,-3.0108543851602834,2.9888569754150804
-0.9417727098992095,1.8751142392606037,1.3285944517736
-0.9417727098992095,1.8751142392606037,-0.23044503277003703
-0.9417727098992095,1.8751142392606037,-1.7461447172212095
-0.9417727098992095,1.8751142392606037,2.9888569754150804
-0.9417727098992095,-1.7461447172212095,1.3285944517736
-0.9417727098992095,-1.7461447172212095,-0.23044503277003703
-0.9417727098992095,-1.7461447172212095,2.9888569754150804
-0.9417727098992095,2.9888569754150804,1.3285944517736
-0.9417727098992095,2.9888569754150804,-0.23044503277003703
-0.9417727098992095,1.3285944517736,-0.23044503277003703
-2.396566322715176,2.5077338338211295,-3.0108543851602834
-2.396566322715176,2.5077338338211295,1.8751142392606037
-2.396566322715176,2.5077338338211295,-1.7461447172212095
-2.396566322715176,2.5077338338211295,2.9888569754150804
-2.396566322715176,2.5077338338211295,1.3285944517736
-2.396566322715176,2.5077338338211295,-0.23044503277003703
-2.396566322715176,-3.0108543851602834,1.3285944517736
-2.396566322715176,-3.0108543851602834,-0.23044503277003703
-2.396566322715176,-3.0108543851602834,1.8751142392606037
-2.396566322715176,-3.0108543851602834,-1.7461447172212095
-2.396566322715176,-3.0108543851602834,2.9888569754150804
-2.396566322715176,1.8751142392606037,1.3285944517736
-2.396566322715176,1.8751142392606037,-0.23044503277003703
-2.396566322715176,1.8751142392606037,-1.7461447172212095
-2.396566322715176,1.8751142392606037,2.9888569754150804
-2.396566322715176,-1.7461447172212095,1.3285944517736
-2.396566322715176,-1.7461447172212095,-0.23044503277003703
-2.396566322715176,-1.7461447172212095,2.9888569754150804
-2.396566322715176,2.9888569754150804,1.3285944517736
-2.396566322715176,2.9888569754150804,-0.23044503277003703
-2.396566322715176,1.3285944517736,-0.23044503277003703
2.5077338338211295,-3.0108543851602834,1.3285944517736
2.5077338338211295,-3.0108543851602834,-0.23044503277003703
2.5077338338211295,-3.0108543851602834,1.8751142392606037
2.5077338338211295,-3.0108543851602834,-1.7461447172212095
2.5077338338211295,-3.0108543851602834,2.9888569754150804
2.5077338338211295,1.8751142392606037,1.3285944517736
2.5077338338211295,1.8751142392606037,-0.23044503277003703
2.5077338338211295,1.8751142392606037,-1.7461447172212095
2.5077338338211295,1.8751142392606037,2.9888569754150804
2.5077338338211295,-1.7461447172212095,1.3285944517736
2.5077338338211295,-1.7461447172212095,-0.23044503277003703
2.5077338338211295,-1.7461447172212095,2.9888569754150804
2.5077338338211295,2.9888569754150804,1.3285944517736
2.5077338338211295,2.9888569754150804,-0.23044503277003703
2.5077338338211295,1.3285944517736,-0.23044503277003703
-3.0108543851602834,1.3285944517736,-0.23044503277003703
-3.0108543851602834,1.8751142392606037,1.3285944517736
-3.0108543851602834,1.8751142392606037,-0.23044503277003703
-3.0108543851602834,1.8751142392606037,-1.7461447172212095
-3.0108543851602834,1.8751142392606037,2.9888569754150804
-3.0108543851602834,-1.7461447172212095,1.3285944517736
-3.0108543851602834,-1.7461447172212095,-0.23044503277003703
-3.0108543851602834,-1.7461447172212095,2.9888569754150804
-3.0108543851602834,2.9888569754150804,1.3285944517736
-3.0108543851602834,2.9888569754150804,-0.23044503277003703
1.8751142392606037,1.3285944517736,-0.23044503277003703
1.8751142392606037,-1.7461447172212095,1.3285944517736
1.8751142392606037,-1.7461447172212095,-0.23044503277003703
1.8751142392606037,-1.7461447172212095,2.9888569754150804
1.8751142392606037,2.9888569754150804,1.3285944517736
1.8751142392606037,2.9888569754150804,-0.23044503277003703
-1.7461447172212095,1.3285944517736,-0.23044503277003703
-1.7461447172212095,2.9888569754150804,1.3285944517736
-1.7461447172212095,2.9888569754150804,-0.23044503277003703
2.9888569754150804,1.3285944517736,-0.23044503277003703
