0,1,2
2.6397854817096276,-0.7501796739260504,-0.6475614513892521
2.6397854817096276,-0.7501796739260504,0.9359798027341432
2.6397854817096276,-0.7501796739260504,-0.8443547336747029
2.6397854817096276,-0.7501796739260504,0.3834465736587802
2.6397854817096276,-0.7501796739260504,-6.154018963491339
2.6397854817096276,-0.7501796739260504,1.063531047205152
2.6397854817096276,-0.7501796739260504,-0.11809429657143637
2.6397854817096276,-0.7501796739260504,3.0560560558646883
2.6397854817096276,-0.6475614513892521,0.9359798027341432
2.6397854817096276,-0.6475614513892521,-0.8443547336747029
2.6397854817096276,-0.6475614513892521,0.3834465736587802
2.6397854817096276,-0.6475614513892521,-6.154018963491339
2.6397854817096276,-0.6475614513892521,1.063531047205152
2.6397854817096276,-0.6475614513892521,-0.11809429657143637
2.6397854817096276,-0.6475614513892521,3.0560560558646883
2.6397854817096276,0.9359798027341432,-0.8443547336747029
2.6397854817096276,0.9359798027341432,0.3834465736587802
2.6397854817096276,0.9359798027341432,-6.154018963491339
2.6397854817096276,0.9359798027341432,1.063531047205152
2.6397854817096276,0.9359798027341432,-0.11809429657143637
2.6397854817096276,0.9359798027341432,3.0560560558646883
2.6397854817096276,-0.8443547336747029,-0.11809429657143637
2.6397854817096276,-0.8443547336747029,3.0560560558646883
2.6397854817096276,-0.8443547336747029,0.3834465736587802
2.6397854817096276,-0.8443547336747029,-6.154018963491339
2.6397854817096276,-0.8443547336747029,1.063531047205152
2.6397854817096276,0.3834465736587802,-0.11809429657143637
2.6397854817096276,0.3834465736587802,3.0560560558646883
2.6397854817096276,0.3834465736587802,-6.154018963491339
2.6397854817096276,0.3834465736587802,1.063531047205152
2.6397854817096276,-6.154018963491339,-0.11809429657143637
2.6397854817096276,-6.154018963491339,3.0560560558646883
2.6397854817096276,-6.154018963491339,1.063531047205152
2.6397854817096276,1.063531047205152,-0.11809429657143637
2.6397854817096276,1.063531047205152,3.0560560558646883
2.6397854817096276,-0.11809429657143637,3.0560560558646883
-0.7501796739260504,-0.6475614513892521,0.9359798027341432
-0.7501796739260504,-0.6475614513892521,-0.8443547336747029
-0.7501796739260504,-0.6475614513892521,0.3834465736587802
-0.7501796739260504,-0.6475614513892521,-6.154018963491339
-0.7501796739260504,-0.6475614513892521,1.063531047205152
-0.7501796739260504,-0.6475614513892521,-0.11809429657143637
-0.7501796739260504,-0.6475614513892521,3.0560560558646883
-0.7501796739260504,0.9359798027341432,-0.8443547336747029
-0.7501796739260504,0.9359798027341432,0.3834465736587802
-0.7501796739260504,0.9359798027341432,-6.154018963491339
-0.7501796739260504,0.9359798027341432,1.063531047205152
-0.7501796739260504,0.9359798027341432,-0.11809429657143637
-0.7501796739260504,0.9359798027341432,3.0560560558646883
-0.7501796739260504,-0.8443547336747029,-0.11809429657143637
-0.7501796739260504,-0.8443547336747029,3.0560560558646883
-0.7501796739260504,-0.8443547336747029,0.3834465736587802
-0.7501796739260504,-0.8443547336747029,-6.154018963491339
-0.7501796739260504,-0.8443547336747029,1.063531047205152
-0.7501796739260504,0.3834465736587802,-0.11809429657143637
-0.7501796739260504,0.3834465736587802,3.0560560558646883
-0.7501796739260504,0.3834465736587802,-6.154018963491339
-0.7501796739260504,0.3834465736587802,1.063531047205152
-0.7501796739260504,-6.154018963491339,-0.11809429657143637
-0.7501796739260504,-6.154018963491339,3.0560560558646883
-0.7501796739260504,-6.154018963491339,1.063531047205152
-0.7501796739260504,1.063531047205152,-0.11809429657143637
-0.7501796739260504,1.063531047205152,3.0560560558646883
-0.7501796739260504,-0.11809429657143637,3.0560560558646883
-0.6475614513892521,0.9359798027341432,-0.8443547336747029
-0.6475614513892521,0.9359798027341432,0.3834465736587802
-0.6475614513892521,0.9359798027341432,-6.154018963491339
-0.6475614513892521,0.9359798027341432,1.063531047205152
-0.6475614513892521,0.9359798027341432,-0.11809429657143637
-0.6475614513892521,0.9359798027341432,3.0560560558646883
-0.6475614513892521,-0.8443547336747029,-0.11809429657143637
-0.6475614513892521,-0.8443547336747029,3.0560560558646883
-0.6475614513892521,-0.8443547336747029,0.3834465736587802
-0.6475614513892521,-0.8443547336747029,-6.154018963491339
-0.6475614513892521,-0.8443547336747029,1.063531047205152
-0.6475614513892521,0.3834465736587802,-0.11809429657143637
-0.6475614513892521,0.3834465736587802,3.0560560558646883
-0.6475614513892521,0.3834465736587802,-6.154018963491339
-0.6475614513892521,0.3834465736587802,1.063531047205152
-0.6475614513892521,-6.154018963491339,-0.11809429657143637
-0.6475614513892521,-6.154018963491339,3.0560560558646883
-0.6475614513892521,-6.154018963491339,1.063531047205152
-0.6475614513892521,1.063531047205152,-0.11809429657143637
-0.6475614513892521,1.063531047205152,3.0560560558646883
-0.6475614513892521,-0.11809429657143637,3.0560560558646883
0.9359798027341432,-0.8443547336747029,-0.11809429657143637
0.9359798027341432,-0.8443547336747029,3.0560560558646883
0.9359798027341432,-0.8443547336747029,0.3834465736587802
0.9359798027341432,-0.8443547336747029,-6.154018963491339
0.9359798027341432,-0.8443547336747029,1.063531047205152
0.9359798027341432,0.3834465736587802,-0.11809429657143637
0.9359798027341432,0.3834465736587802,3.0560560558646883
0.9359798027341432,0.3834465736587802,-6.154018963491339
0.9359798027341432,0.3834465736587802,1.063531047205152
0.9359798027341432,-6.154018963491339,-0.11809429657143637
0.9359798027341432,-6.154018963491339,3.0560560558646883
0.9359798027341432,-6.154018963491339,1.063531047205152
0.9359798027341432,1.063531047205152,-0.11809429657143637
0.9359798027341432,1.063531047205152,3.0560560558646883
0.9359798027341432,-0.11809429657143637,3.0560560558646883
-0.8443547336747029,-0.11809429657143637,3.0560560558646883
-0.8443547336747029,0.3834465736587802,-0.11809429657143637
-0.8443547336747029,0.3834465736587802,3.0560560558646883
-0.8443547336747029,0.3834465736587802,-6.154018963491339
-0.8443547336747029,0.3834465736587802,1.063531047205152
-0.8443547336747029,-6.154018963491339,-0.11809429657143637
-0.8443547336747029,-6.154018963491339,3.0560560558646883
-0.8443547336747029,-6.154018963491339,1.063531047205152
-0.8443547336747029,1.063531047205152,-0.11809429657143637
-0.8443547336747029,1.063531047205152,3.0560560558646883
0.3834465736587802,-0.11809429657143637,3.0560560558646883
0.3834465736587802,-6.154018963491339,-0.11809429657143637
0.3834465736587802,-6.154018963491339,3.0560560558646883
0.3834465736587802,-6.154018963491339,1.063531047205152
0.3834465736587802,1.063531047205152,-0.11809429657143637
0.3834465736587802,1.063531047205152,3.0560560558646883
-6.154018963491339,-0.11809429657143637,3.0560560558646883
-6.154018963491339,1.063531047205152,-0.11809429657143637
-6.154018963491339,1.063531047205152,3.0560560558646883
1.063531047205152,-0.11809429657143637,3.0560560558646883
