0,1,2
-1.4434673596145646,0.3226483077914665,2.964545005044165
-1.4434673596145646,0.3226483077914665,0.4886725347669149
-1.4434673596145646,0.3226483077914665,-1.5912903603142614
-1.4434673596145646,0.3226483077914665,-0.4878381323437174
-1.4434673596145646,0.3226483077914665,1.22876454789491
-1.4434673596145646,0.3226483077914665,1.3537187081479374
-1.4434673596145646,0.3226483077914665,0.11768012110052688
-1.4434673596145646,0.3226483077914665,0.86982866846182
-1.4434673596145646,2.964545005044165,0.4886725347669149
-1.4434673596145646,2.964545005044165,-1.5912903603142614
-1.4434673596145646,2.964545005044165,-0.4878381323437174
-1.4434673596145646,2.964545005044165,1.22876454789491
-1.4434673596145646,2.964545005044165,1.3537187081479374
-1.4434673596145646,2.964545005044165,0.11768012110052688
-1.4434673596145646,2.964545005044165,0.86982866846182
-1.4434673596145646,0.4886725347669149,-1.5912903603142614
-1.4434673596145646,0.4886725347669149,-0.4878381323437174
-1.4434673596145646,0.4886725347669149,1.22876454789491
-1.4434673596145646,0.4886725347669149,1.3537187081479374
-1.4434673596145646,0.4886725347669149,0.11768012110052688
-1.4434673596145646,0.4886725347669149,0.86982866846182
-1.4434673596145646,-1.5912903603142614,0.11768012110052688
-1.4434673596145646,-1.5912903603142614,0.86982866846182
-1.4434673596145646,-1.5912903603142614,-0.4878381323437174
-1.4434673596145646,-1.5912903603142614,1.22876454789491
-1.4434673596145646,-1.5912903603142614,1.3537187081479374
-1.4434673596145646,-0.4878381323437174,0.11768012110052688
-1.4434673596145646,-0.4878381323437174,0.86982866846182
-1.4434673596145646,-0.4878381323437174,1.22876454789491
-1.4434673596145646,-0.4878381323437174,1.3537187081479374
-1.4434673596145646,1.22876454789491,0.11768012110052688
-1.4434673596145646,1.22876454789491,0.86982866846182
-1.4434673596145646,1.22876454789491,1.3537187081479374
-1.4434673596145646,1.3537187081479374,0.11768012110052688
-1.4434673596145646,1.3537187081479374,0.86982866846182
-1.4434673596145646,0.11768012110052688,0.86982866846182
0.3226483077914665,2.964545005044165,0.4886725347669149
0.3226483077914665,2.964545005044165,-1.5912903603142614
0.3226483077914665,2.964545005044165,-0.4878381323437174
0.3226483077914665,2.964545005044165,1.22876454789491
0.3226483077914665,2.964545005044165,1.3537187081479374
0.3226483077914665,2.964545005044165,0.11768012110052688
0.3226483077914665,2.964545005044165,0.86982866846182
0.3226483077914665,0.4886725347669149,-1.5912903603142614
0.3226483077914665,0.4886725347669149,-0.4878381323437174
0.3226483077914665,0.4886725347669149,1.22876454789491
0.3226483077914665,0.4886725347669149,1.3537187081479374
0.3226483077914665,0.4886725347669149,0.11768012110052688
0.3226483077914665,0.4886725347669149,0.86982866846182
0.3226483077914665,-1.5912903603142614,0.11768012110052688
0.3226483077914665,-1.5912903603142614,0.86982866846182
0.3226483077914665,-1.5912903603142614,-0.4878381323437174
0.3226483077914665,-1.5912903603142614,1.22876454789491
0.3226483077914665,-1.5912903603142614,1.3537187081479374
0.3226483077914665,-0.4878381323437174,0.11768012110052688
0.3226483077914665,-0.4878381323437174,0.86982866846182
0.3226483077914665,-0.4878381323437174,1.22876454789491
0.3226483077914665,-0.4878381323437174,1.3537187081479374
0.3226483077914665,1.22876454789491,0.11768012110052688
0.3226483077914665,1.22876454789491,0.86982866846182
0.3226483077914665,1.22876454789491,1.3537187081479374
0.3226483077914665,1.3537187081479374,0.11768012110052688
0.3226483077914665,1.3537187081479374,0.86982866846182
0.3226483077914665,0.11768012110052688,0.86982866846182
2.964545005044165,0.4886725347669149,-1.5912903603142614
2.964545005044165,0.4886725347669149,-0.4878381323437174
2.964545005044165,0.4886725347669149,1.22876454789491
2.964545005044165,0.4886725347669149,1.3537187081479374
2.964545005044165,0.4886725347669149,0.11768012110052688
2.964545005044165,0.4886725347669149,0.86982866846182
2.964545005044165,-1.5912903603142614,0.11768012110052688
2.964545005044165,-1.5912903603142614,0.86982866846182
2.964545005044165,-1.5912903603142614,-0.4878381323437174
2.964545005044165,-1.5912903603142614,1.22876454789491
2.964545005044165,-1.5912903603142614,1.3537187081479374
2.964545005044165,-0.4878381323437174,0.11768012110052688
2.964545005044165,-0.4878381323437174,0.86982866846182
2.964545005044165,-0.4878381323437174,1.22876454789491
2.964545005044165,-0.4878381323437174,1.3537187081479374
2.964545005044165,1.22876454789491,0.11768012110052688
2.964545005044165,1.22876454789491,0.86982866846182
2.964545005044165,1.22876454789491,1.3537187081479374
2.964545005044165,1.3537187081479374,0.11768012110052688
2.964545005044165,1.3537187081479374,0.86982866846182
2.964545005044165,0.11768012110052688,0.86982866846182
0.4886725347669149,-1.5912903603142614,0.11768012110052688
0.4886725347669149,-1.5912903603142614,0.86982866846182
0.4886725347669149,-1.5912903603142614,-0.4878381323437174
0.4886725347669149,-1.5912903603142614,1.22876454789491
0.4886725347669149,-1.5912903603142614,1.3537187081479374
0.4886725347669149,-0.4878381323437174,0.11768012110052688
0.4886725347669149,-0.4878381323437174,0.86982866846182
0.4886725347669149,-0.4878381323437174,1.22876454789491
0.4886725347669149,-0.4878381323437174,1.3537187081479374
0.4886725347669149,1.22876454789491,0.11768012110052688
0.4886725347669149,1.22876454789491,0.86982866846182
0.4886725347669149,1.22876454789491,1.3537187081479374
0.4886725347669149,1.3537187081479374,0.11768012110052688
0.4886725347669149,1.3537187081479374,0.86982866846182
0.4886725347669149,0.11768012110052688,0.86982866846182
-1.5912903603142614,0.11768012110052688,0.86982866846182
-1.5912903603142614,-0.4878381323437174,0.11768012110052688
-1.5912903603142614,-0.4878381323437174,0.86982866846182
-1.5912903603142614,-0.4878381323437174,1.22876454789491
-1.5912903603142614,-0.4878381323437174,1.3537187081479374
-1.5912903603142614,1.22876454789491,0.11768012110052688
-1.5912903603142614,1.22876454789491,0.86982866846182
-1.5912903603142614,1.22876454789491,1.3537187081479374
-1.5912903603142614,1.3537187081479374,0.11768012110052688
-1.5912903603142614,1.3537187081479374,0.86982866846182
-0.4878381323437174,0.11768012110052688,0.86982866846182
-0.4878381323437174,1.22876454789491,0.11768012110052688
-0.4878381323437174,1.22876454789491,0.86982866846182
-0.4878381323437174,1.22876454789491,1.3537187081479374
-0.4878381323437174,1.3537187081479374,0.11768012110052688
-0.4878381323437174,1.3537187081479374,0.86982866846182
1.22876454789491,0.11768012110052688,0.86982866846182
1.22876454789491,1.3537187081479374,0.11768012110052688
1.22876454789491,1.3537187081479374,0.86982866846182
1.3537187081479374,0.11768012110052688,0.86982866846182
