0,1,2
0.04274420093007971,0.9478854053850726,-1.009061528939962
0.04274420093007971,0.9478854053850726,-0.8411793077424133
0.04274420093007971,0.9478854053850726,-1.6890588355391971
0.04274420093007971,0.9478854053850726,-3.4951262355120596
0.04274420093007971,0.9478854053850726,-1.33629585817691
0.04274420093007971,0.9478854053850726,-1.8262893296747595
0.04274420093007971,0.9478854053850726,-1.2748474866941926
0.04274420093007971,0.9478854053850726,1.4504122967266042
0.04274420093007971,-1.009061528939962,-0.8411793077424133
0.04274420093007971,-1.009061528939962,-1.6890588355391971
0.04274420093007971,-1.009061528939962,-3.4951262355120596
0.04274420093007971,-1.009061528939962,-1.33629585817691
0.04274420093007971,-1.009061528939962,-1.8262893296747595
0.04274420093007971,-1.009061528939962,-1.2748474866941926
0.04274420093007971,-1.009061528939962,1.4504122967266042
0.04274420093007971,-0.8411793077424133,-1.6890588355391971
0.04274420093007971,-0.8411793077424133,-3.4951262355120596
0.04274420093007971,-0.8411793077424133,-1.33629585817691
0.04274420093007971,-0.8411793077424133,-1.8262893296747595
0.04274420093007971,-0.8411793077424133,-1.2748474866941926
0.04274420093007971,-0.8411793077424133,1.4504122967266042
0.04274420093007971,-1.6890588355391971,-1.2748474866941926
0.04274420093007971,-1.6890588355391971,1.4504122967266042
0.04274420093007971,-1.6890588355391971,-3.4951262355120596
0.04274420093007971,-1.6890588355391971,-1.33629585817691
0.04274420093007971,-1.6890588355391971,-1.8262893296747595
0.04274420093007971,-3.4951262355120596,-1.2748474866941926
0.04274420093007971,-3.4951262355120596,1.4504122967266042
0.04274420093007971,-3.4951262355120596,-1.33629585817691
0.04274420093007971,-3.4951262355120596,-1.8262893296747595
0.04274420093007971,-1.33629585817691,-1.2748474866941926
0.04274420093007971,-1.33629585817691,1.4504122967266042
0.04274420093007971,-1.33629585817691,-1.8262893296747595
0.04274420093007971,-1.8262893296747595,-1.2748474866941926
0.04274420093007971,-1.8262893296747595,1.4504122967266042
0.04274420093007971,-1.2748474866941926,1.4504122967266042
0.9478854053850726,-1.009061528939962,-0.8411793077424133
0.9478854053850726,-1.009061528939962,-1.6890588355391971
0.9478854053850726,-1.009061528939962,-3.4951262355120596
0.9478854053850726,-1.009061528939962,-1.33629585817691
0.9478854053850726,-1.009061528939962,-1.8262893296747595
0.9478854053850726,-1.009061528939962,-1.2748474866941926
0.9478854053850726,-1.009061528939962,1.4504122967266042
0.9478854053850726,-0.8411793077424133,-1.6890588355391971
0.9478854053850726,-0.8411793077424133,-3.4951262355120596
0.9478854053850726,-0.8411793077424133,-1.33629585817691
0.9478854053850726,-0.8411793077424133,-1.8262893296747595
0.9478854053850726,-0.8411793077424133,-1.2748474866941926
0.9478854053850726,-0.8411793077424133,1.4504122967266042
0.9478854053850726,-1.6890588355391971,-1.2748474866941926
0.9478854053850726,-1.6890588355391971,1.4504122967266042
0.9478854053850726,-1.6890588355391971,-3.4951262355120596
0.9478854053850726,-1.6890588355391971,-1.33629585817691
0.9478854053850726,-1.6890588355391971,-1.8262893296747595
0.9478854053850726,-3.4951262355120596,-1.2748474866941926
0.9478854053850726,-3.4951262355120596,1.4504122967266042
0.9478854053850726,-3.4951262355120596,-1.33629585817691
0.9478854053850726,-3.4951262355120596,-1.8262893296747595
0.9478854053850726,-1.33629585817691,-1.2748474866941926
0.9478854053850726,-1.33629585817691,1.4504122967266042
0.9478854053850726,-1.33629585817691,-1.8262893296747595
0.9478854053850726,-1.8262893296747595,-1.2748474866941926
0.9478854053850726,-1.8262893296747595,1.4504122967266042
0.9478854053850726,-1.2748474866941926,1.4504122967266042
-1.009061528939962,-0.8411793077424133,-1.6890588355391971
-1.009061528939962,-0.8411793077424133,-3.4951262355120596
-1.009061528939962,-0.8411793077424133,-1.33629585817691
-1.009061528939962,-0.8411793077424133,-1.8262893296747595
-1.009061528939962,-0.8411793077424133,-1.2748474866941926
-1.009061528939962,-0.8411793077424133,1.4504122967266042
-1.009061528939962,-1.6890588355391971,-1.2748474866941926
-1.009061528939962,-1.6890588355391971,1.4504122967266042
-1.009061528939962,-1.6890588355391971,-3.4951262355120596
-1.009061528939962,-1.6890588355391971,-1.33629585817691
-1.009061528939962,-1.6890588355391971,-1.8262893296747595
-1.009061528939962,-3.4951262355120596,-1.2748474866941926
-1.009061528939962,-3.4951262355120596,1.4504122967266042
-1.009061528939962,-3.4951262355120596,-1.33629585817691
-1.009061528939962,-3.4951262355120596,-1.8262893296747595
-1.009061528939962,-1.33629585817691,-1.2748474866941926
-1.009061528939962,-1.33629585817691,1.4504122967266042
-1.009061528939962,-1.33629585817691,-1.8262893296747595
-1.009061528939962,-1.8262893296747595,-1.2748474866941926
-1.009061528939962,-1.8262893296747595,1.4504122967266042
-1.009061528939962,-1.2748474866941926,1.4504122967266042
-0.8411793077424133,-1.6890588355391971,-1.2748474866941926
-0.8411793077424133,-1.6890588355391971,1.4504122967266042
-0.8411793077424133,-1.6890588355391971,-3.4951262355120596
-0.8411793077424133,-1.6890588355391971,-1.33629585817691
-0.8411793077424133,-1.6890588355391971,-1.8262893296747595
-0.8411793077424133,-3.4951262355120596,-1.2748474866941926
-0.8411793077424133,-3.4951262355120596,1.4504122967266042
-0.8411793077424133,-3.4951262355120596,-1.33629585817691
-0.8411793077424133,-3.4951262355120596,-1.8262893296747595
-0.8411793077424133,-1.33629585817691,-1.2748474866941926
-0.8411793077424133,-1.33629585817691,1.4504122967266042
-0.8411793077424133,-1.33629585817691,-1.8262893296747595
-0.8411793077424133,-1.8262893296747595,-1.2748474866941926
-0.8411793077424133,-1.8262893296747595,1.4504122967266042
-0.8411793077424133,-1.2748474866941926,1.4504122967266042
-1.6890588355391971,-1.2748474866941926,1.4504122967266042
-1.6890588355391971,-3.4951262355120596,-1.2748474866941926
-1.6890588355391971,-3.4951262355120596,1.4504122967266042
-1.6890588355391971,-3.4951262355120596,-1.33629585817691
-1.6890588355391971,-3.4951262355120596,-1.8262893296747595
-1.6890588355391971,-1.33629585817691,-1.2748474866941926
-1.6890588355391971,-1.33629585817691,1.4504122967266042
-1.6890588355391971,-1.33629585817691,-1.8262893296747595
-1.6890588355391971,-1.8262893296747595,-1.2748474866941926
-1.6890588355391971,-1.8262893296747595,1.4504122967266042
-3.4951262355120596,-1.2748474866941926,1.4504122967266042
-3.4951262355120596,-1.33629585817691,-1.2748474866941926
-3.4951262355120596,-1.33629585817691,1.4504122967266042
-3.4951262355120596,-1.33629585817691,-1.8262893296747595
-3.4951262355120596,-1.8262893296747595,-1.2748474866941926
-3.4951262355120596,-1.8262893296747595,1.4504122967266042
-1.33629585817691,-1.2748474866941926,1.4504122967266042
-1.33629585817691,-1.8262893296747595,-1.2748474866941926
-1.33629585817691,-1.8262893296747595,1.4504122967266042
-1.8262893296747595,-1.2748474866941926,1.4504122967266042
