0,1,2
0.5569426307174745,1.9846959900959646,-0.23272341492423393
0.5569426307174745,1.9846959900959646,-1.5941858654519514
0.5569426307174745,1.9846959900959646,0.14428106927504136
0.5569426307174745,1.9846959900959646,0.9285798642291712
0.5569426307174745,1.9846959900959646,-0.29653507705605703
0.5569426307174745,1.9846959900959646,0.04889481190048671
0.5569426307174745,1.9846959900959646,2.6947840098042186
0.5569426307174745,1.9846959900959646,3.0247781341270494
0.5569426307174745,-0.23272341492423393,-1.5941858654519514
0.5569426307174745,-0.23272341492423393,0.14428106927504136
0.5569426307174745,-0.23272341492423393,0.9285798642291712
0.5569426307174745,-0.23272341492423393,-0.29653507705605703
0.5569426307174745,-0.23272341492423393,0.04889481190048671
0.5569426307174745,-0.23272341492423393,2.6947840098042186
0.5569426307174745,-0.23272341492423393,3.0247781341270494
0.5569426307174745,-1.5941858654519514,0.14428106927504136
0.5569426307174745,-1.5941858654519514,0.9285798642291712
0.5569426307174745,-1.5941858654519514,-0.29653507705605703
0.5569426307174745,-1.5941858654519514,0.04889481190048671
0.5569426307174745,-1.5941858654519514,2.6947840098042186
0.5569426307174745,-1.5941858654519514,3.0247781341270494
0.5569426307174745,0.14428106927504136,2.6947840098042186
0.5569426307174745,0.14428106927504136,3.0247781341270494
0.5569426307174745,0.14428106927504136,0.9285798642291712
0.5569426307174745,0.14428106927504136,-0.29653507705605703
0.5569426307174745,0.14428106927504136,0.04889481190048671
0.5569426307174745,0.9285798642291712,2.6947840098042186
0.5569426307174745,0.9285798642291712,3.0247781341270494
0.5569426307174745,0.9285798642291712,-0.29653507705605703
0.5569426307174745,0.9285798642291712,0.04889481190048671
0.5569426307174745,-0.29653507705605703,2.6947840098042186
0.5569426307174745,-0.29653507705605703,3.0247781341270494
0.5569426307174745,-0.29653507705605703,0.04889481190048671
0.5569426307174745,0.04889481190048671,2.6947840098042186
0.5569426307174745,0.04889481190048671,3.0247781341270494
0.5569426307174745,2.6947840098042186,3.0247781341270494
1.9846959900959646,-0.23272341492423393,-1.5941858654519514
1.9846959900959646,-0.23272341492423393,0.14428106927504136
1.9846959900959646,-0.23272341492423393,0.9285798642291712
1.9846959900959646,-0.23272341492423393,-0.29653507705605703
1.9846959900959646,-0.23272341492423393,0.04889481190048671
1.9846959900959646,-0.23272341492423393,2.6947840098042186
1.9846959900959646,-0.23272341492423393,3.0247781341270494
1.9846959900959646,-1.5941858654519514,0.14428106927504136
1.9846959900959646,-1.5941858654519514,0.9285798642291712
1.9846959900959646,-1.5941858654519514,-0.29653507705605703
1.9846959900959646,-1.5941858654519514,0.04889481190048671
1.9846959900959646,-1.5941858654519514,2.6947840098042186
1.9846959900959646,-1.5941858654519514,3.0247781341270494
1.9846959900959646,0.14428106927504136,2.6947840098042186
1.9846959900959646,0.14428106927504136,3.0247781341270494
1.9846959900959646,0.14428106927504136,0.9285798642291712
1.9846959900959646,0.14428106927504136,-0.29653507705605703
1.9846959900959646,0.14428106927504136,0.04889481190048671
1.9846959900959646,0.9285798642291712,2.6947840098042186
1.9846959900959646,0.9285798642291712,3.0247781341270494
1.9846959900959646,0.9285798642291712,-0.29653507705605703
1.9846959900959646,0.9285798642291712,0.04889481190048671
1.9846959900959646,-0.29653507705605703,2.6947840098042186
1.9846959900959646,-0.29653507705605703,3.0247781341270494
1.9846959900959646,-0.29653507705605703,0.04889481190048671
1.9846959900959646,0.04889481190048671,2.6947840098042186
1.9846959900959646,0.04889481190048671,3.0247781341270494
1.9846959900959646,2.6947840098042186,3.0247781341270494
-0.23272341492423393,-1.5941858654519514,0.14428106927504136
-0.23272341492423393,-1.5941858654519514,0.9285798642291712
-0.23272341492423393,-1.5941858654519514,-0.29653507705605703
-0.23272341492423393,-1.5941858654519514,0.04889481190048671
-0.23272341492423393,-1.5941858654519514,2.6947840098042186
-0.23272341492423393,-1.5941858654519514,3.0247781341270494
-0.23272341492423393,0.14428106927504136,2.6947840098042186
-0.23272341492423393,0.14428106927504136,3.0247781341270494
-0.23272341492423393,0.14428106927504136,0.9285798642291712
-0.23272341492423393,0.14428106927504136,-0.29653507705605703
-0.23272341492423393,0.14428106927504136,0.04889481190048671
-0.23272341492423393,0.9285798642291712,2.6947840098042186
-0.23272341492423393,0.9285798642291712,3.0247781341270494
-0.23272341492423393,0.9285798642291712,-0.29653507705605703
-0.23272341492423393,0.9285798642291712,0.04889481190048671
-0.23272341492423393,-0.29653507705605703,2.6947840098042186
-0.23272341492423393,-0.29653507705605703,3.0247781341270494
-0.23272341492423393,-0.29653507705605703,0.04889481190048671
-0.23272341492423393,0.04889481190048671,2.6947840098042186
-0.23272341492423393,0.04889481190048671,3.0247781341270494
-0.23272341492423393,2.6947840098042186,3.0247781341270494
-1.5941858654519514,0.14428106927504136,2.6947840098042186
-1.5941858654519514,0.14428106927504136,3.0247781341270494
-1.5941858654519514,0.14428106927504136,0.9285798642291712
-1.5941858654519514,0.14428106927504136,-0.29653507705605703
-1.5941858654519514,0.14428106927504136,0.04889481190048671
-1.5941858654519514,0.9285798642291712,2.6947840098042186
-1.5941858654519514,0.9285798642291712,3.0247781341270494
-1.5941858654519514,0.9285798642291712,-0.29653507705605703
-1.5941858654519514,0.9285798642291712,0.04889481190048671
-1.5941858654519514,-0.29653507705605703,2.6947840098042186
-1.5941858654519514,-0.29653507705605703,3.0247781341270494
-1.5941858654519514,-0.29653507705605703,0.04889481190048671
-1.5941858654519514,0.04889481190048671,2.6947840098042186
-1.5941858654519514,0.04889481190048671,3.0247781341270494
-1.5941858654519514,2.6947840098042186,3.0247781341270494
0.14428106927504136,2.6947840098042186,3.0247781341270494
0.14428106927504136,0.9285798642291712,2.6947840098042186
0.14428106927504136,0.9285798642291712,3.0247781341270494
0.14428106927504136,0.9285798642291712,-0.29653507705605703
0.14428106927504136,0.9285798642291712,0.04889481190048671
0.14428106927504136,-0.29653507705605703,2.6947840098042186
0.14428106927504136,-0.29653507705605703,3.0247781341270494
0.14428106927504136,-0.29653507705605703,0.04889481190048671
0.14428106927504136,0.04889481190048671,2.6947840098042186
0.14428106927504136,0.04889481190048671,3.0247781341270494
0.9285798642291712,2.6947840098042186,3.0247781341270494
0.9285798642291712,-0.29653507705605703,2.6947840098042186
0.9285798642291712,-0.29653507705605703,3.0247781341270494
0.9285798642291712,-0.29653507705605703,0.04889481190048671
0.9285798642291712,0.04889481190048671,2.6947840098042186
0.9285798642291712,0.04889481190048671,3.0247781341270494
-0.29653507705605703,2.6947840098042186,3.0247781341270494
-0.29653507705605703,0.04889481190048671,2.6947840098042186
-0.29653507705605703,0.04889481190048671,3.0247781341270494
0.04889481190048671,2.6947840098042186,3.0247781341270494
