0,1,2
4.866930683593594,-1.3462721078884492,-1.2201456098475045
4.866930683593594,-1.3462721078884492,0.7422568532634612
4.866930683593594,-1.3462721078884492,2.068132979023432
4.866930683593594,-1.3462721078884492,0.04994674303191968
4.866930683593594,-1.3462721078884492,1.790730074946221
4.866930683593594,-1.3462721078884492,-1.4258531996023625
4.866930683593594,-1.3462721078884492,1.138502957741738
4.866930683593594,-1.3462721078884492,0.7195197333132725
4.866930683593594,-1.2201456098475045,0.7422568532634612
4.866930683593594,-1.2201456098475045,2.068132979023432
4.866930683593594,-1.2201456098475045,0.04994674303191968
4.866930683593594,-1.2201456098475045,1.790730074946221
4.866930683593594,-1.2201456098475045,-1.4258531996023625
4.866930683593594,-1.2201456098475045,1.138502957741738
4.866930683593594,-1.2201456098475045,0.7195197333132725
4.866930683593594,0.7422568532634612,2.068132979023432
4.866930683593594,0.7422568532634612,0.04994674303191968
4.866930683593594,0.7422568532634612,1.790730074946221
4.866930683593594,0.7422568532634612,-1.4258531996023625
4.866930683593594,0.7422568532634612,1.138502957741738
4.866930683593594,0.7422568532634612,0.7195197333132725
4.866930683593594,2.068132979023432,1.138502957741738
4.866930683593594,2.068132979023432,0.7195197333132725
4.866930683593594,2.068132979023432,0.04994674303191968
4.866930683593594,2.068132979023432,1.790730074946221
4.866930683593594,2.068132979023432,-1.4258531996023625
4.866930683593594,0.04994674303191968,1.138502957741738
4.866930683593594,0.04994674303191968,0.7195197333132725
4.866930683593594,0.04994674303191968,1.790730074946221
4.866930683593594,0.04994674303191968,-1.4258531996023625
4.866930683593594,1.790730074946221,1.138502957741738
4.866930683593594,1.790730074946221,0.7195197333132725
4.866930683593594,1.790730074946221,-1.4258531996023625
4.866930683593594,-1.4258531996023625,1.138502957741738
4.866930683593594,-1.4258531996023625,0.7195197333132725
4.866930683593594,1.138502957741738,0.7195197333132725
-1.3462721078884492,-1.2201456098475045,0.7422568532634612
-1.3462721078884492,-1.2201456098475045,2.068132979023432
-1.3462721078884492,-1.2201456098475045,0.04994674303191968
-1.3462721078884492,-1.2201456098475045,1.790730074946221
-1.3462721078884492,-1.2201456098475045,-1.4258531996023625
-1.3462721078884492,-1.2201456098475045,1.138502957741738
-1.3462721078884492,-1.2201456098475045,0.7195197333132725
-1.3462721078884492,0.7422568532634612,2.068132979023432
-1.3462721078884492,0.7422568532634612,0.04994674303191968
-1.3462721078884492,0.7422568532634612,1.790730074946221
-1.3462721078884492,0.7422568532634612,-1.4258531996023625
-1.3462721078884492,0.7422568532634612,1.138502957741738
-1.3462721078884492,0.7422568532634612,0.7195197333132725
-1.3462721078884492,2.068132979023432,1.138502957741738
-1.3462721078884492,2.068132979023432,0.7195197333132725
-1.3462721078884492,2.068132979023432,0.04994674303191968
-1.3462721078884492,2.068132979023432,1.790730074946221
-1.3462721078884492,2.068132979023432,-1.4258531996023625
-1.3462721078884492,0.04994674303191968,1.138502957741738
-1.3462721078884492,0.04994674303191968,0.7195197333132725
-1.3462721078884492,0.04994674303191968,1.790730074946221
-1.3462721078884492,0.04994674303191968,-1.4258531996023625
-1.3462721078884492,1.790730074946221,1.138502957741738
-1.3462721078884492,1.790730074946221,0.7195197333132725
-1.3462721078884492,1.790730074946221,-1.4258531996023625
-1.3462721078884492,-1.4258531996023625,1.138502957741738
-1.3462721078884492,-1.4258531996023625,0.7195197333132725
-1.3462721078884492,1.138502957741738,0.7195197333132725
-1.2201456098475045,0.7422568532634612,2.068132979023432
-1.2201456098475045,0.7422568532634612,0.04994674303191968
-1.2201456098475045,0.7422568532634612,1.790730074946221
-1.2201456098475045,0.7422568532634612,-1.4258531996023625
-1.2201456098475045,0.7422568532634612,1.138502957741738
-1.2201456098475045,0.7422568532634612,0.7195197333132725
-1.2201456098475045,2.068132979023432,1.138502957741738
-1.2201456098475045,2.068132979023432,0.7195197333132725
-1.2201456098475045,2.068132979023432,0.04994674303191968
-1.2201456098475045,2.068132979023432,1.790730074946221
-1.2201456098475045,2.068132979023432,-1.4258531996023625
-1.2201456098475045,0.04994674303191968,1.138502957741738
-1.2201456098475045,0.04994674303191968,0.7195197333132725
-1.2201456098475045,0.04994674303191968,1.790730074946221
-1.2201456098475045,0.04994674303191968,-1.4258531996023625
-1.2201456098475045,1.790730074946221,1.138502957741738
-1.2201456098475045,1.790730074946221,0.7195197333132725
-1.2201456098475045,1.790730074946221,-1.4258531996023625
-1.2201456098475045,-1.4258531996023625,1.138502957741738
-1.2201456098475045,-1.4258531996023625,0.7195197333132725
-1.2201456098475045,1.138502957741738,0.7195197333132725
0.7422568532634612,2.068132979023432,1.138502957741738
0.7422568532634612,2.068132979023432,0.7195197333132725
0.7422568532634612,2.068132979023432,0.04994674303191968
0.7422568532634612,2.068132979023432,1.790730074946221
0.7422568532634612,2.068132979023432,-1.4258531996023625
0.7422568532634612,0.04994674303191968,1.138502957741738
0.7422568532634612,0.04994674303191968,0.7195197333132725
0.7422568532634612,0.04994674303191968,1.790730074946221
0.7422568532634612,0.04994674303191968,-1.4258531996023625
0.7422568532634612,1.790730074946221,1.138502957741738
0.7422568532634612,1.790730074946221,0.7195197333132725
0.7422568532634612,1.790730074946221,-1.4258531996023625
0.7422568532634612,-1.4258531996023625,1.138502957741738
0.7422568532634612,-1.4258531996023625,0.7195197333132725
0.7422568532634612,1.138502957741738,0.7195197333132725
2.068132979023432,1.138502957741738,0.7195197333132725
2.068132979023432,0.04994674303191968,1.138502957741738
2.068132979023432,0.04994674303191968,0.7195197333132725
2.068132979023432,0.04994674303191968,1.790730074946221
2.068132979023432,0.04994674303191968,-1.4258531996023625
2.068132979023432,1.790730074946221,1.138502957741738
2.068132979023432,1.790730074946221,0.7195197333132725
2.068132979023432,1.790730074946221,-1.4258531996023625
2.068132979023432,-1.4258531996023625,1.138502957741738
2.068132979023432,-1.4258531996023625,0.7195197333132725
0.04994674303191968,1.138502957741738,0.7195197333132725
0.04994674303191968,1.790730074946221,1.138502957741738
0.04994674303191968,1.790730074946221,0.7195197333132725
0.04994674303191968,1.790730074946221,-1.4258531996023625
0.04994674303191968,-1.4258531996023625,1.138502957741738
0.04994674303191968,-1.4258531996023625,0.7195197333132725
1.790730074946221,1.138502957741738,0.7195197333132725
1.790730074946221,-1.4258531996023625,1.138502957741738
1.790730074946221,-1.4258531996023625,0.7195197333132725
-1.4258531996023625,1.138502957741738,0.7195197333132725
