0,1,2
2.249515673182088,3.3553496046317406,0.41411697479513276
2.249515673182088,3.3553496046317406,0.8811531830674616
2.249515673182088,3.3553496046317406,1.7085460697189756
2.249515673182088,3.3553496046317406,-0.8320652397834722
2.249515673182088,3.3553496046317406,0.22524475629384907
2.249515673182088,3.3553496046317406,1.3098000496543896
2.249515673182088,3.3553496046317406,-4.366594349907606
2.249515673182088,3.3553496046317406,1.4164335461252395
2.249515673182088,0.41411697479513276,0.8811531830674616
2.249515673182088,0.41411697479513276,1.7085460697189756
2.249515673182088,0.41411697479513276,-0.8320652397834722
2.249515673182088,0.41411697479513276,0.22524475629384907
2.249515673182088,0.41411697479513276,1.3098000496543896
2.249515673182088,0.41411697479513276,-4.366594349907606
2.249515673182088,0.41411697479513276,1.4164335461252395
2.249515673182088,0.8811531830674616,1.7085460697189756
2.249515673182088,0.8811531830674616,-0.8320652397834722
2.249515673182088,0.8811531830674616,0.22524475629384907
2.249515673182088,0.8811531830674616,1.3098000496543896
2.249515673182088,0.8811531830674616,-4.366594349907606
2.249515673182088,0.8811531830674616,1.4164335461252395
2.249515673182088,1.7085460697189756,-4.366594349907606
2.249515673182088,1.7085460697189756,1.4164335461252395
2.249515673182088,1.7085460697189756,-0.8320652397834722
2.249515673182088,1.7085460697189756,0.22524475629384907
2.249515673182088,1.7085460697189756,1.3098000496543896
2.249515673182088,-0.8320652397834722,-4.366594349907606
2.249515673182088,-0.8320652397834722,1.4164335461252395
2.249515673182088,-0.8320652397834722,0.22524475629384907
2.249515673182088,-0.8320652397834722,1.3098000496543896
2.249515673182088,0.22524475629384907,-4.366594349907606
2.249515673182088,0.22524475629384907,1.4164335461252395
2.249515673182088,0.22524475629384907,1.3098000496543896
2.249515673182088,1.3098000496543896,-4.366594349907606
2.249515673182088,1.3098000496543896,1.4164335461252395
2.249515673182088,-4.366594349907606,1.4164335461252395
3.3553496046317406,0.41411697479513276,0.8811531830674616
3.3553496046317406,0.41411697479513276,1.7085460697189756
3.3553496046317406,0.41411697479513276,-0.8320652397834722
3.3553496046317406,0.41411697479513276,0.22524475629384907
3.3553496046317406,0.41411697479513276,1.3098000496543896
3.3553496046317406,0.41411697479513276,-4.366594349907606
3.3553496046317406,0.41411697479513276,1.4164335461252395
3.3553496046317406,0.8811531830674616,1.7085460697189756
3.3553496046317406,0.8811531830674616,-0.8320652397834722
3.3553496046317406,0.8811531830674616,0.22524475629384907
3.3553496046317406,0.8811531830674616,1.3098000496543896
3.3553496046317406,0.8811531830674616,-4.366594349907606
3.3553496046317406,0.8811531830674616,1.4164335461252395
3.3553496046317406,1.7085460697189756,-4.366594349907606
3.3553496046317406,1.7085460697189756,1.4164335461252395
3.3553496046317406,1.7085460697189756,-0.8320652397834722
3.3553496046317406,1.7085460697189756,0.22524475629384907
3.3553496046317406,1.7085460697189756,1.3098000496543896
3.3553496046317406,-0.8320652397834722,-4.366594349907606
3.3553496046317406,-0.8320652397834722,1.4164335461252395
3.3553496046317406,-0.8320652397834722,0.22524475629384907
3.3553496046317406,-0.8320652397834722,1.3098000496543896
3.3553496046317406,0.22524475629384907,-4.366594349907606
3.3553496046317406,0.22524475629384907,1.4164335461252395
3.3553496046317406,0.22524475629384907,1.3098000496543896
3.3553496046317406,1.3098000496543896,-4.366594349907606
3.3553496046317406,1.3098000496543896,1.4164335461252395
3.3553496046317406,-4.366594349907606,1.4164335461252395
0.41411697479513276,0.8811531830674616,1.7085460697189756
0.41411697479513276,0.8811531830674616,-0.8320652397834722
0.41411697479513276,0.8811531830674616,0.22524475629384907
0.41411697479513276,0.8811531830674616,1.3098000496543896
0.41411697479513276,0.8811531830674616,-4.366594349907606
0.41411697479513276,0.8811531830674616,1.4164335461252395
0.41411697479513276,1.7085460697189756,-4.366594349907606
0.41411697479513276,1.7085460697189756,1.4164335461252395
0.41411697479513276,1.7085460697189756,-0.8320652397834722
0.41411697479513276,1.7085460697189756,0.22524475629384907
0.41411697479513276,1.7085460697189756,1.3098000496543896
0.41411697479513276,-0.8320652397834722,-4.366594349907606
0.41411697479513276,-0.8320652397834722,1.4164335461252395
0.41411697479513276,-0.8320652397834722,0.22524475629384907
0.41411697479513276,-0.8320652397834722,1.3098000496543896
0.41411697479513276,0.22524475629384907,-4.366594349907606
0.41411697479513276,0.22524475629384907,1.4164335461252395
0.41411697479513276,0.22524475629384907,1.3098000496543896
0.41411697479513276,1.3098000496543896,-4.366594349907606
0.41411697479513276,1.3098000496543896,1.4164335461252395
0.41411697479513276,-4.366594349907606,1.4164335461252395
0.8811531830674616,1.7085460697189756,-4.366594349907606
0.8811531830674616,1.7085460697189756,1.4164335461252395
0.8811531830674616,1.7085460697189756,-0.8320652397834722
0.8811531830674616,1.7085460697189756,0.22524475629384907
0.8811531830674616,1.7085460697189756,1.3098000496543896
0.8811531830674616,-0.8320652397834722,-4.366594349907606
0.8811531830674616,-0.8320652397834722,1.4164335461252395
0.8811531830674616,-0.8320652397834722,0.22524475629384907
0.8811531830674616,-0.8320652397834722,1.3098000496543896
0.8811531830674616,0.22524475629384907,-4.366594349907606
0.8811531830674616,0.22524475629384907,1.4164335461252395
0.8811531830674616,0.22524475629384907,1.3098000496543896
0.8811531830674616,1.3098000496543896,-4.366594349907606
0.8811531830674616,1.3098000496543896,1.4164335461252395
0.8811531830674616,-4.366594349907606,1.4164335461252395
1.7085460697189756,-4.366594349907606,1.4164335461252395
1.7085460697189756,-0.8320652397834722,-4.366594349907606
1.7085460697189756,-0.8320652397834722,1.4164335461252395
1.7085460697189756,-0.8320652397834722,0.22524475629384907
1.7085460697189756,-0.8320652397834722,1.3098000496543896
1.7085460697189756,0.22524475629384907,-4.366594349907606
1.7085460697189756,0.22524475629384907,1.4164335461252395
1.7085460697189756,0.22524475629384907,1.3098000496543896
1.7085460697189756,1.3098000496543896,-4.366594349907606
1.7085460697189756,1.3098000496543896,1.4164335461252395
-0.8320652397834722,-4.366594349907606,1.4164335461252395
-0.8320652397834722,0.22524475629384907,-4.366594349907606
-0.8320652397834722,0.22524475629384907,1.4164335461252395
-0.8320652397834722,0.22524475629384907,1.3098000496543896
-0.8320652397834722,1.3098000496543896,-4.366594349907606
-0.8320652397834722,1.3098000496543896,1.4164335461252395
0.22524475629384907,-4.366594349907606,1.4164335461252395
0.22524475629384907,1.3098000496543896,-4.366594349907606
0.22524475629384907,1.3098000496543896,1.4164335461252395
1.3098000496543896,-4.366594349907606,1.4164335461252395
