0,1,2
0.6078500805475591,0.9060548740320903,-2.238105320316246
0.6078500805475591,0.9060548740320903,1.019463969812209
0.6078500805475591,0.9060548740320903,-2.9942427550260566
0.6078500805475591,0.9060548740320903,2.906323846408766
0.6078500805475591,0.9060548740320903,0.33679016417436536
0.6078500805475591,0.9060548740320903,-2.1637824788351088
0.6078500805475591,0.9060548740320903,1.974529997145018
0.6078500805475591,0.9060548740320903,-0.35858870809023674
0.6078500805475591,-2.238105320316246,1.019463969812209
0.6078500805475591,-2.238105320316246,-2.9942427550260566
0.6078500805475591,-2.238105320316246,2.906323846408766
0.6078500805475591,-2.238105320316246,0.33679016417436536
0.6078500805475591,-2.238105320316246,-2.1637824788351088
0.6078500805475591,-2.238105320316246,1.974529997145018
0.6078500805475591,-2.238105320316246,-0.35858870809023674
0.6078500805475591,1.019463969812209,-2.9942427550260566
0.6078500805475591,1.019463969812209,2.906323846408766
0.6078500805475591,1.019463969812209,0.33679016417436536
0.6078500805475591,1.019463969812209,-2.1637824788351088
0.6078500805475591,1.019463969812209,1.974529997145018
0.6078500805475591,1.019463969812209,-0.35858870809023674
0.6078500805475591,-2.9942427550260566,1.974529997145018
0.6078500805475591,-2.9942427550260566,-0.35858870809023674
0.6078500805475591,-2.9942427550260566,2.906323846408766
0.6078500805475591,-2.9942427550260566,0.33679016417436536
0.6078500805475591,-2.9942427550260566,-2.1637824788351088
0.6078500805475591,2.906323846408766,1.974529997145018
0.6078500805475591,2.906323846408766,-0.35858870809023674
0.6078500805475591,2.906323846408766,0.33679016417436536
0.6078500805475591,2.906323846408766,-2.1637824788351088
0.6078500805475591,0.33679016417436536,1.974529997145018
0.6078500805475591,0.33679016417436536,-0.35858870809023674
0.6078500805475591,0.33679016417436536,-2.1637824788351088
0.6078500805475591,-2.1637824788351088,1.974529997145018
0.6078500805475591,-2.1637824788351088,-0.35858870809023674
0.6078500805475591,1.974529997145018,-0.35858870809023674
0.9060548740320903,-2.238105320316246,1.019463969812209
0.9060548740320903,-2.238105320316246,-2.9942427550260566
0.9060548740320903,-2.238105320316246,2.906323846408766
0.9060548740320903,-2.238105320316246,0.33679016417436536
0.9060548740320903,-2.238105320316246,-2.1637824788351088
0.9060548740320903,-2.238105320316246,1.974529997145018
0.9060548740320903,-2.238105320316246,-0.35858870809023674
0.9060548740320903,1.019463969812209,-2.9942427550260566
0.9060548740320903,1.019463969812209,2.906323846408766
0.9060548740320903,1.019463969812209,0.33679016417436536
0.9060548740320903,1.019463969812209,-2.1637824788351088
0.9060548740320903,1.019463969812209,1.974529997145018
0.9060548740320903,1.019463969812209,-0.35858870809023674
0.9060548740320903,-2.9942427550260566,1.974529997145018
0.9060548740320903,-2.9942427550260566,-0.35858870809023674
0.9060548740320903,-2.9942427550260566,2.906323846408766
0.9060548740320903,-2.9942427550260566,0.33679016417436536
0.9060548740320903,-2.9942427550260566,-2.1637824788351088
0.9060548740320903,2.906323846408766,1.974529997145018
0.9060548740320903,2.906323846408766,-0.35858870809023674
0.9060548740320903,2.906323846408766,0.33679016417436536
0.9060548740320903,2.906323846408766,-2.1637824788351088
0.9060548740320903,0.33679016417436536,1.974529997145018
0.9060548740320903,0.33679016417436536,-0.35858870809023674
0.9060548740320903,0.33679016417436536,-2.1637824788351088
0.9060548740320903,-2.1637824788351088,1.974529997145018
0.9060548740320903,-2.1637824788351088,-0.35858870809023674
0.9060548740320903,1.974529997145018,-0.35858870809023674
-2.238105320316246,1.019463969812209,-2.9942427550260566
-2.238105320316246,1.019463969812209,2.906323846408766
-2.238105320316246,1.019463969812209,0.33679016417436536
-2.238105320316246,1.019463969812209,-2.1637824788351088
-2.238105320316246,1.019463969812209,1.974529997145018
-2.238105320316246,1.019463969812209,-0.35858870809023674
-2.238105320316246,-2.9942427550260566,1.974529997145018
-2.238105320316246,-2.9942427550260566,-0.35858870809023674
-2.238105320316246,-2.9942427550260566,2.906323846408766
-2.238105320316246,-2.9942427550260566,0.33679016417436536
-2.238105320316246,-2.9942427550260566,-2.1637824788351088
-2.238105320316246,2.906323846408766,1.974529997145018
-2.238105320316246,2.906323846408766,-0.35858870809023674
-2.238105320316246,2.906323846408766,0.33679016417436536
-2.238105320316246,2.906323846408766,-2.1637824788351088
-2.238105320316246,0.33679016417436536,1.974529997145018
-2.238105320316246,0.33679016417436536,-0.35858870809023674
-2.238105320316246,0.33679016417436536,-2.1637824788351088
-2.238105320316246,-2.1637824788351088,1.974529997145018
-2.238105320316246,-2.1637824788351088,-0.35858870809023674
-2.238105320316246,1.974529997145018,-0.35858870809023674
1.019463969812209,-2.9942427550260566,1.974529997145018
1.019463969812209,-2.9942427550260566,-0.35858870809023674
1.019463969812209,-2.9942427550260566,2.906323846408766
1.019463969812209,-2.9942427550260566,0.33679016417436536
1.019463969812209,-2.9942427550260566,-2.1637824788351088
1.019463969812209,2.906323846408766,1.974529997145018
1.019463969812209,2.906323846408766,-0.35858870809023674
1.019463969812209,2.906323846408766,0.33679016417436536
1.019463969812209,2.906323846408766,-2.1637824788351088
1.019463969812209,0.33679016417436536,1.974529997145018
1.019463969812209,0.33679016417436536,-0.35858870809023674
1.019463969812209,0.33679016417436536,-2.1637824788351088
1.019463969812209,-2.1637824788351088,1.974529997145018
1.019463969812209,-2.1637824788351088,-0.35858870809023674
1.019463969812209,1.974529997145018,-0.35858870809023674
-2.9942427550260566,1.974529997145018,-0.35858870809023674
-2.9942427550260566,2.906323846408766,1.974529997145018
-2.9942427550260566,2.906323846408766,-0.35858870809023674
-2.9942427550260566,2.906323846408766,0.33679016417436536
-2.9942427550260566,2.906323846408766,-2.1637824788351088
-2.9942427550260566,0.33679016417436536,1.974529997145018
-2.9942427550260566,0.33679016417436536,-0.35858870809023674
-2.9942427550260566,0.33679016417436536,-2.1637824788351088
-2.9942427550260566,-2.1637824788351088,1.974529997145018
-2.9942427550260566,-2.1637824788351088,-0.35858870809023674
2.906323846408766,1.974529997145018,-0.35858870809023674
2.906323846408766,0.33679016417436536,1.974529997145018
2.906323846408766,0.33679016417436536,-0.35858870809023674
2.906323846408766,0.33679016417436536,-2.1637824788351088
2.906323846408766,-2.1637824788351088,1.974529997145018
2.906323846408766,-2.1637824788351088,-0.35858870809023674
0.33679016417436536,1.974529997145018,-0.35858870809023674
0.33679016417436536,-2.1637824788351088,1.974529997145018
0.33679016417436536,-2.1637824788351088,-0.35858870809023674
-2.1637824788351088,1.974529997145018,-0.35858870809023674
