0,1,2
-3.923278791592647,0.5669267367952046,-0.5831539516484829
-3.923278791592647,0.5669267367952046,-2.2603215207573246
-3.923278791592647,0.5669267367952046,-0.7090323054213294
-3.923278791592647,0.5669267367952046,1.592595460961357
-3.923278791592647,0.5669267367952046,-0.3772467818371491
-3.923278791592647,0.5669267367952046,-0.7587124440225731
-3.923278791592647,0.5669267367952046,-2.354654348907021
-3.923278791592647,0.5669267367952046,-1.2575248553236777
-3.923278791592647,-0.5831539516484829,-2.2603215207573246
-3.923278791592647,-0.5831539516484829,-0.7090323054213294
-3.923278791592647,-0.5831539516484829,1.592595460961357
-3.923278791592647,-0.5831539516484829,-0.3772467818371491
-3.923278791592647,-0.5831539516484829,-0.7587124440225731
-3.923278791592647,-0.5831539516484829,-2.354654348907021
-3.923278791592647,-0.5831539516484829,-1.2575248553236777
-3.923278791592647,-2.2603215207573246,-0.7090323054213294
-3.923278791592647,-2.2603215207573246,1.592595460961357
-3.923278791592647,-2.2603215207573246,-0.3772467818371491
-3.923278791592647,-2.2603215207573246,-0.7587124440225731
-3.923278791592647,-2.2603215207573246,-2.354654348907021
-3.923278791592647,-2.2603215207573246,-1.2575248553236777
-3.923278791592647,-0.7090323054213294,-2.354654348907021
-3.923278791592647,-0.7090323054213294,-1.2575248553236777
-3.923278791592647,-0.7090323054213294,1.592595460961357
-3.923278791592647,-0.7090323054213294,-0.3772467818371491
-3.923278791592647,-0.7090323054213294,-0.7587124440225731
-3.923278791592647,1.592595460961357,-2.354654348907021
-3.923278791592647,1.592595460961357,-1.2575248553236777
-3.923278791592647,1.592595460961357,-0.3772467818371491
-3.923278791592647,1.592595460961357,-0.7587124440225731
-3.923278791592647,-0.3772467818371491,-2.354654348907021
-3.923278791592647,-0.3772467818371491,-1.2575248553236777
-3.923278791592647,-0.3772467818371491,-0.7587124440225731
-3.923278791592647,-0.7587124440225731,-2.354654348907021
-3.923278791592647,-0.7587124440225731,-1.2575248553236777
-3.923278791592647,-2.354654348907021,-1.2575248553236777
0.5669267367952046,-0.5831539516484829,-2.2603215207573246
0.5669267367952046,-0.5831539516484829,-0.7090323054213294
0.5669267367952046,-0.5831539516484829,1.592595460961357
0.5669267367952046,-0.5831539516484829,-0.3772467818371491
0.5669267367952046,-0.5831539516484829,-0.7587124440225731
0.5669267367952046,-0.5831539516484829,-2.354654348907021
0.5669267367952046,-0.5831539516484829,-1.2575248553236777
0.5669267367952046,-2.2603215207573246,-0.7090323054213294
0.5669267367952046,-2.2603215207573246,1.592595460961357
0.5669267367952046,-2.2603215207573246,-0.3772467818371491
0.5669267367952046,-2.2603215207573246,-0.7587124440225731
0.5669267367952046,-2.2603215207573246,-2.354654348907021
0.5669267367952046,-2.2603215207573246,-1.2575248553236777
0.5669267367952046,-0.7090323054213294,-2.354654348907021
0.5669267367952046,-0.7090323054213294,-1.2575248553236777
0.5669267367952046,-0.7090323054213294,1.592595460961357
0.5669267367952046,-0.7090323054213294,-0.3772467818371491
0.5669267367952046,-0.7090323054213294,-0.7587124440225731
0.5669267367952046,1.592595460961357,-2.354654348907021
0.5669267367952046,1.592595460961357,-1.2575248553236777
0.5669267367952046,1.592595460961357,-0.3772467818371491
0.5669267367952046,1.592595460961357,-0.7587124440225731
0.5669267367952046,-0.3772467818371491,-2.354654348907021
0.5669267367952046,-0.3772467818371491,-1.2575248553236777
0.5669267367952046,-0.3772467818371491,-0.7587124440225731
0.5669267367952046,-0.7587124440225731,-2.354654348907021
0.5669267367952046,-0.7587124440225731,-1.2575248553236777
0.5669267367952046,-2.354654348907021,-1.2575248553236777
-0.5831539516484829,-2.2603215207573246,-0.7090323054213294
-0.5831539516484829,-2.2603215207573246,1.592595460961357
-0.5831539516484829,-2.2603215207573246,-0.3772467818371491
-0.5831539516484829,-2.2603215207573246,-0.7587124440225731
-0.5831539516484829,-2.2603215207573246,-2.354654348907021
-0.5831539516484829,-2.2603215207573246,-1.2575248553236777
-0.5831539516484829,-0.7090323054213294,-2.354654348907021
-0.5831539516484829,-0.7090323054213294,-1.2575248553236777
-0.5831539516484829,-0.7090323054213294,1.592595460961357
-0.5831539516484829,-0.7090323054213294,-0.3772467818371491
-0.5831539516484829,-0.7090323054213294,-0.7587124440225731
-0.5831539516484829,1.592595460961357,-2.354654348907021
-0.5831539516484829,1.592595460961357,-1.2575248553236777
-0.5831539516484829,1.592595460961357,-0.3772467818371491
-0.5831539516484829,1.592595460961357,-0.7587124440225731
-0.5831539516484829,-0.3772467818371491,-2.354654348907021
-0.5831539516484829,-0.3772467818371491,-1.2575248553236777
-0.5831539516484829,-0.3772467818371491,-0.7587124440225731
-0.5831539516484829,-0.7587124440225731,-2.354654348907021
-0.5831539516484829,-0.7587124440225731,-1.2575248553236777
-0.5831539516484829,-2.354654348907021,-1.2575248553236777
-2.2603215207573246,-0.7090323054213294,-2.354654348907021
-2.2603215207573246,-0.7090323054213294,-1.2575248553236777
-2.2603215207573246,-0.7090323054213294,1.592595460961357
-2.2603215207573246,-0.7090323054213294,-0.3772467818371491
-2.2603215207573246,-0.7090323054213294,-0.7587124440225731
-2.2603215207573246,1.592595460961357,-2.354654348907021
-2.2603215207573246,1.592595460961357,-1.2575248553236777
-2.2603215207573246,1.592595460961357,-0.3772467818371491
-2.2603215207573246,1.592595460961357,-0.7587124440225731
-2.2603215207573246,-0.3772467818371491,-2.354654348907021
-2.2603215207573246,-0.3772467818371491,-1.2575248553236777
-2.2603215207573246,-0.3772467818371491,-0.7587124440225731
-2.2603215207573246,-0.7587124440225731,-2.354654348907021
-2.2603215207573246,-0.7587124440225731,-1.2575248553236777
-2.2603215207573246,-2.354654348907021,-1.2575248553236777
-0.7090323054213294,-2.354654348907021,-1.2575248553236777
-0.7090323054213294,1.592595460961357,-2.354654348907021
-0.7090323054213294,1.592595460961357,-1.2575248553236777
-0.7090323054213294,1.592595460961357,-0.3772467818371491
-0.7090323054213294,1.592595460961357,-0.7587124440225731
-0.7090323054213294,-0.3772467818371491,-2.354654348907021
-0.7090323054213294,-0.3772467818371491,-1.2575248553236777
-0.7090323054213294,-0.3772467818371491,-0.7587124440225731
-0.7090323054213294,-0.7587124440225731,-2.354654348907021
-0.7090323054213294,-0.7587124440225731,-1.2575248553236777
1.592595460961357,-2.354654348907021,-1.2575248553236777
1.592595460961357,-0.3772467818371491,-2.354654348907021
1.592595460961357,-0.3772467818371491,-1.2575248553236777
1.592595460961357,-0.3772467818371491,-0.7587124440225731
1.592595460961357,-0.7587124440225731,-2.354654348907021
1.592595460961357,-0.7587124440225731,-1.2575248553236777
-0.3772467818371491,-2.354654348907021,-1.2575248553236777
-0.3772467818371491,-0.7587124440225731,-2.354654348907021
-0.3772467818371491,-0.7587124440225731,-1.2575248553236777
-0.7587124440225731,-2.354654348907021,-1.2575248553236777
