0,1,2
-3.006628081091853,-0.22414954330113684,1.0545974454586249
-3.006628081091853,-0.22414954330113684,2.811485028191588
-3.006628081091853,-0.22414954330113684,-3.748360701567331
-3.006628081091853,-0.22414954330113684,-0.5948765531054852
-3.006628081091853,-0.22414954330113684,-0.7529116707481118
-3.006628081091853,-0.22414954330113684,0.6484180551261325
-3.006628081091853,-0.22414954330113684,-0.010385346221787422
-3.006628081091853,-0.22414954330113684,0.11094931703416831
-3.006628081091853,1.0545974454586249,2.811485028191588
-3.006628081091853,1.0545974454586249,-3.748360701567331
-3.006628081091853,1.0545974454586249,-0.5948765531054852
-3.006628081091853,1.0545974454586249,-0.7529116707481118
-3.006628081091853,1.0545974454586249,0.6484180551261325
-3.006628081091853,1.0545974454586249,-0.010385346221787422
-3.006628081091853,1.0545974454586249,0.11094931703416831
-3.006628081091853,2.811485028191588,-3.748360701567331
-3.006628081091853,2.811485028191588,-0.5948765531054852
-3.006628081091853,2.811485028191588,-0.7529116707481118
-3.006628081091853,2.811485028191588,0.6484180551261325
-3.006628081091853,2.811485028191588,-0.010385346221787422
-3.006628081091853,2.811485028191588,0.11094931703416831
-3.006628081091853,-3.748360701567331,-0.010385346221787422
-3.006628081091853,-3.748360701567331,0.11094931703416831
-3.006628081091853,-3.748360701567331,-0.5948765531054852
-3.006628081091853,-3.748360701567331,-0.7529116707481118
-3.006628081091853,-3.748360701567331,0.6484180551261325
-3.006628081091853,-0.5948765531054852,-0.010385346221787422
-3.006628081091853,-0.5948765531054852,0.11094931703416831
-3.006628081091853,-0.5948765531054852,-0.7529116707481118
-3.006628081091853,-0.5948765531054852,0.6484180551261325
-3.006628081091853,-0.7529116707481118,-0.010385346221787422
-3.006628081091853,-0.7529116707481118,0.11094931703416831
-3.006628081091853,-0.7529116707481118,0.6484180551261325
-3.006628081091853,0.6484180551261325,-0.010385346221787422
-3.006628081091853,0.6484180551261325,0.11094931703416831
-3.006628081091853,-0.010385346221787422,0.11094931703416831
-0.22414954330113684,1.0545974454586249,2.811485028191588
-0.22414954330113684,1.0545974454586249,-3.748360701567331
-0.22414954330113684,1.0545974454586249,-0.5948765531054852
-0.22414954330113684,1.0545974454586249,-0.7529116707481118
-0.22414954330113684,1.0545974454586249,0.6484180551261325
-0.22414954330113684,1.0545974454586249,-0.010385346221787422
-0.22414954330113684,1.0545974454586249,0.11094931703416831
-0.22414954330113684,2.811485028191588,-3.748360701567331
-0.22414954330113684,2.811485028191588,-0.5948765531054852
-0.22414954330113684,2.811485028191588,-0.7529116707481118
-0.22414954330113684,2.811485028191588,0.6484180551261325
-0.22414954330113684,2.811485028191588,-0.010385346221787422
-0.22414954330113684,2.811485028191588,0.11094931703416831
-0.22414954330113684,-3.748360701567331,-0.010385346221787422
-0.22414954330113684,-3.748360701567331,0.11094931703416831
-0.22414954330113684,-3.748360701567331,-0.5948765531054852
-0.22414954330113684,-3.748360701567331,-0.7529116707481118
-0.22414954330113684,-3.748360701567331,0.6484180551261325
-0.22414954330113684,-0.5948765531054852,-0.010385346221787422
-0.22414954330113684,-0.5948765531054852,0.11094931703416831
-0.22414954330113684,-0.5948765531054852,-0.7529116707481118
-0.22414954330113684,-0.5948765531054852,0.6484180551261325
-0.22414954330113684,-0.7529116707481118,-0.010385346221787422
-0.22414954330113684,-0.7529116707481118,0.11094931703416831
-0.22414954330113684,-0.7529116707481118,0.6484180551261325
-0.22414954330113684,0.6484180551261325,-0.010385346221787422
-0.22414954330113684,0.6484180551261325,0.11094931703416831
-0.22414954330113684,-0.010385346221787422,0.11094931703416831
1.0545974454586249,2.811485028191588,-3.748360701567331
1.0545974454586249,2.811485028191588,-0.5948765531054852
1.0545974454586249,2.811485028191588,-0.7529116707481118
1.0545974454586249,2.811485028191588,0.6484180551261325
1.0545974454586249,2.811485028191588,-0.010385346221787422
1.0545974454586249,2.811485028191588,0.11094931703416831
1.0545974454586249,-3.748360701567331,-0.010385346221787422
1.0545974454586249,-3.748360701567331,0.11094931703416831
1.0545974454586249,-3.748360701567331,-0.5948765531054852
1.0545974454586249,-3.748360701567331,-0.7529116707481118
1.0545974454586249,-3.748360701567331,0.6484180551261325
1.0545974454586249,-0.5948765531054852,-0.010385346221787422
1.0545974454586249,-0.5948765531054852,0.11094931703416831
1.0545974454586249,-0.5948765531054852,-0.7529116707481118
1.0545974454586249,-0.5948765531054852,0.6484180551261325
1.0545974454586249,-0.7529116707481118,-0.010385346221787422
1.0545974454586249,-0.7529116707481118,0.11094931703416831
1.0545974454586249,-0.7529116707481118,0.6484180551261325
1.0545974454586249,0.6484180551261325,-0.010385346221787422
1.0545974454586249,0.6484180551261325,0.11094931703416831
1.0545974454586249,-0.010385346221787422,0.11094931703416831
2.811485028191588,-3.748360701567331,-0.010385346221787422
2.811485028191588,-3.748360701567331,0.11094931703416831
2.811485028191588,-3.748360701567331,-0.5948765531054852
2.811485028191588,-3.748360701567331,-0.7529116707481118
2.811485028191588,-3.748360701567331,0.6484180551261325
2.811485028191588,-0.5948765531054852,-0.010385346221787422
2.811485028191588,-0.5948765531054852,0.11094931703416831
2.811485028191588,-0.5948765531054852,-0.7529116707481118
2.811485028191588,-0.5948765531054852,0.6484180551261325
2.811485028191588,-0.7529116707481118,-0.010385346221787422
2.811485028191588,-0.7529116707481118,0.11094931703416831
2.811485028191588,-0.7529116707481118,0.6484180551261325
2.811485028191588,0.6484180551261325,-0.010385346221787422
2.811485028191588,0.6484180551261325,0.11094931703416831
2.811485028191588,-0.010385346221787422,0.11094931703416831
-3.748360701567331,-0.010385346221787422,0.11094931703416831
-3.748360701567331,-0.5948765531054852,-0.010385346221787422
-3.748360701567331,-0.5948765531054852,0.11094931703416831
-3.748360701567331,-0.5948765531054852,-0.7529116707481118
-3.748360701567331,-0.5948765531054852,0.6484180551261325
-3.748360701567331,-0.7529116707481118,-0.010385346221787422
-3.748360701567331,-0.7529116707481118,0.11094931703416831
-3.748360701567331,-0.7529116707481118,0.6484180551261325
-3.748360701567331,0.6484180551261325,-0.010385346221787422
-3.748360701567331,0.6484180551261325,0.11094931703416831
-0.5948765531054852,-0.010385346221787422,0.11094931703416831
-0.5948765531054852,-0.7529116707481118,-0.010385346221787422
-0.5948765531054852,-0.7529116707481118,0.11094931703416831
-0.5948765531054852,-0.7529116707481118,0.6484180551261325
-0.5948765531054852,0.6484180551261325,-0.010385346221787422
-0.5948765531054852,0.6484180551261325,0.11094931703416831
-0.7529116707481118,-0.010385346221787422,0.11094931703416831
-0.7529116707481118,0.6484180551261325,-0.010385346221787422
-0.7529116707481118,0.6484180551261325,0.11094931703416831
0.6484180551261325,-0.010385346221787422,0.11094931703416831
