0,1,2
-1.4111864394833318,-3.1264242469509056,-0.41962919319764636
-1.4111864394833318,-3.1264242469509056,-1.9517487506134306
-1.4111864394833318,-3.1264242469509056,0.9513874887401849
-1.4111864394833318,-3.1264242469509056,-0.9770580542113788
-1.4111864394833318,-3.1264242469509056,-2.3071431086434924
-1.4111864394833318,-3.1264242469509056,1.225815834940024
-1.4111864394833318,-3.1264242469509056,-1.5761046442045017
-1.4111864394833318,-3.1264242469509056,0.4493754447149046
-1.4111864394833318,-0.41962919319764636,-1.9517487506134306
-1.4111864394833318,-0.41962919319764636,0.9513874887401849
-1.4111864394833318,-0.41962919319764636,-0.9770580542113788
-1.4111864394833318,-0.41962919319764636,-2.3071431086434924
-1.4111864394833318,-0.41962919319764636,1.225815834940024
-1.4111864394833318,-0.41962919319764636,-1.5761046442045017
-1.4111864394833318,-0.41962919319764636,0.4493754447149046
-1.4111864394833318,-1.9517487506134306,0.9513874887401849
-1.4111864394833318,-1.9517487506134306,-0.9770580542113788
-1.4111864394833318,-1.9517487506134306,-2.3071431086434924
-1.4111864394833318,-1.9517487506134306,1.225815834940024
-1.4111864394833318,-1.9517487506134306,-1.5761046442045017
-1.4111864394833318,-1.9517487506134306,0.4493754447149046
-1.4111864394833318,0.9513874887401849,-1.5761046442045017
-1.4111864394833318,0.9513874887401849,0.4493754447149046
-1.4111864394833318,0.9513874887401849,-0.9770580542113788
-1.4111864394833318,0.9513874887401849,-2.3071431086434924
-1.4111864394833318,0.9513874887401849,1.225815834940024
-1.4111864394833318,-0.9770580542113788,-1.5761046442045017
-1.4111864394833318,-0.9770580542113788,0.4493754447149046
-1.4111864394833318,-0.9770580542113788,-2.3071431086434924
-1.4111864394833318,-0.9770580542113788,1.225815834940024
-1.4111864394833318,-2.3071431086434924,-1.5761046442045017
-1.4111864394833318,-2.3071431086434924,0.4493754447149046
-1.4111864394833318,-2.3071431086434924,1.225815834940024
-1.4111864394833318,1.225815834940024,-1.5761046442045017
-1.4111864394833318,1.225815834940024,0.4493754447149046
-1.4111864394833318,-1.5761046442045017,0.4493754447149046
-3.1264242469509056,-0.41962919319764636,-1.9517487506134306
-3.1264242469509056,-0.41962919319764636,0.9513874887401849
-3.1264242469509056,-0.41962919319764636,-0.9770580542113788
-3.1264242469509056,-0.41962919319764636,-2.3071431086434924
-3.1264242469509056,-0.41962919319764636,1.225815834940024
-3.1264242469509056,-0.41962919319764636,-1.5761046442045017
-3.1264242469509056,-0.41962919319764636,0.4493754447149046
-3.1264242469509056,-1.9517487506134306,0.9513874887401849
-3.1264242469509056,-1.9517487506134306,-0.9770580542113788
-3.1264242469509056,-1.9517487506134306,-2.3071431086434924
-3.1264242469509056,-1.9517487506134306,1.225815834940024
-3.1264242469509056,-1.9517487506134306,-1.5761046442045017
-3.1264242469509056,-1.9517487506134306,0.4493754447149046
-3.1264242469509056,0.9513874887401849,-1.5761046442045017
-3.1264242469509056,0.9513874887401849,0.4493754447149046
-3.1264242469509056,0.9513874887401849,-0.9770580542113788
-3.1264242469509056,0.9513874887401849,-2.3071431086434924
-3.1264242469509056,0.9513874887401849,1.225815834940024
-3.1264242469509056,-0.9770580542113788,-1.5761046442045017
-3.1264242469509056,-0.9770580542113788,0.4493754447149046
-3.1264242469509056,-0.9770580542113788,-2.3071431086434924
-3.1264242469509056,-0.9770580542113788,1.225815834940024
-3.1264242469509056,-2.3071431086434924,-1.5761046442045017
-3.1264242469509056,-2.3071431086434924,0.4493754447149046
-3.1264242469509056,-2.3071431086434924,1.225815834940024
-3.1264242469509056,1.225815834940024,-1.5761046442045017
-3.1264242469509056,1.225815834940024,0.4493754447149046
-3.1264242469509056,-1.5761046442045017,0.4493754447149046
-0.41962919319764636,-1.9517487506134306,0.9513874887401849
-0.41962919319764636,-1.9517487506134306,-0.9770580542113788
-0.41962919319764636,-1.9517487506134306,-2.3071431086434924
-0.41962919319764636,-1.9517487506134306,1.225815834940024
-0.41962919319764636,-1.9517487506134306,-1.5761046442045017
-0.41962919319764636,-1.9517487506134306,0.4493754447149046
-0.41962919319764636,0.9513874887401849,-1.5761046442045017
-0.41962919319764636,0.9513874887401849,0.4493754447149046
-0.41962919319764636,0.9513874887401849,-0.9770580542113788
-0.41962919319764636,0.9513874887401849,-2.3071431086434924
-0.41962919319764636,0.9513874887401849,1.225815834940024
-0.41962919319764636,-0.9770580542113788,-1.5761046442045017
-0.41962919319764636,-0.9770580542113788,0.4493754447149046
-0.41962919319764636,-0.9770580542113788,-2.3071431086434924
-0.41962919319764636,-0.9770580542113788,1.225815834940024
-0.41962919319764636,-2.3071431086434924,-1.5761046442045017
-0.41962919319764636,-2.3071431086434924,0.4493754447149046
-0.41962919319764636,-2.3071431086434924,1.225815834940024
-0.41962919319764636,1.225815834940024,-1.5761046442045017
-0.41962919319764636,1.225815834940024,0.4493754447149046
-0.41962919319764636,-1.5761046442045017,0.4493754447149046
-1.9517487506134306,0.9513874887401849,-1.5761046442045017
-1.9517487506134306,0.9513874887401849,0.4493754447149046
-1.9517487506134306,0.9513874887401849,-0.9770580542113788
-1.9517487506134306,0.9513874887401849,-2.3071431086434924
-1.9517487506134306,0.9513874887401849,1.225815834940024
-1.9517487506134306,-0.9770580542113788,-1.5761046442045017
-1.9517487506134306,-0.9770580542113788,0.4493754447149046
-1.9517487506134306,-0.9770580542113788,-2.3071431086434924
-1.9517487506134306,-0.9770580542113788,1.225815834940024
-1.9517487506134306,-2.3071431086434924,-1.5761046442045017
-1.9517487506134306,-2.3071431086434924,0.4493754447149046
-1.9517487506134306,-2.3071431086434924,1.225815834940024
-1.9517487506134306,1.225815834940024,-1.5761046442045017
-1.9517487506134306,1.225815834940024,0.4493754447149046
-1.9517487506134306,-1.5761046442045017,0.4493754447149046
0.9513874887401849,-1.5761046442045017,0.4493754447149046
0.9513874887401849,-0.9770580542113788,-1.5761046442045017
0.9513874887401849,-0.9770580542113788,0.4493754447149046
0.9513874887401849,-0.9770580542113788,-2.3071431086434924
0.9513874887401849,-0.9770580542113788,1.225815834940024
0.9513874887401849,-2.3071431086434924,-1.5761046442045017
0.9513874887401849,-2.3071431086434924,0.4493754447149046
0.9513874887401849,-2.3071431086434924,1.225815834940024
0.9513874887401849,1.225815834940024,-1.5761046442045017
0.9513874887401849,1.225815834940024,0.4493754447149046
-0.9770580542113788,-1.5761046442045017,0.4493754447149046
-0.9770580542113788,-2.3071431086434924,-1.5761046442045017
-0.9770580542113788,-2.3071431086434924,0.4493754447149046
-0.9770580542113788,-2.3071431086434924,1.225815834940024
-0.9770580542113788,1.225815834940024,-1.5761046442045017
-0.9770580542113788,1.225815834940024,0.4493754447149046
-2.3071431086434924,-1.5761046442045017,0.4493754447149046
-2.3071431086434924,1.225815834940024,-1.5761046442045017
-2.3071431086434924,1.225815834940024,0.4493754447149046
1.225815834940024,-1.5761046442045017,0.4493754447149046
