0,1,2
0.42129832413530616,-0.1289556367927944,-0.7018881718715667
0.42129832413530616,-0.1289556367927944,-3.676823938724034
0.42129832413530616,-0.1289556367927944,-2.7134900750085333
0.42129832413530616,-0.1289556367927944,-2.2179412037652133
0.42129832413530616,-0.1289556367927944,-2.165614713451306
0.42129832413530616,-0.1289556367927944,1.4879069424338693
0.42129832413530616,-0.1289556367927944,0.7340043062005853
0.42129832413530616,-0.1289556367927944,-2.687336749325494
0.42129832413530616,-0.7018881718715667,-3.676823938724034
0.42129832413530616,-0.7018881718715667,-2.7134900750085333
0.42129832413530616,-0.7018881718715667,-2.2179412037652133
0.42129832413530616,-0.7018881718715667,-2.165614713451306
0.42129832413530616,-0.7018881718715667,1.4879069424338693
0.42129832413530616,-0.7018881718715667,0.7340043062005853
0.42129832413530616,-0.7018881718715667,-2.687336749325494
0.42129832413530616,-3.676823938724034,-2.7134900750085333
0.42129832413530616,-3.676823938724034,-2.2179412037652133
0.42129832413530616,-3.676823938724034,-2.165614713451306
0.42129832413530616,-3.676823938724034,1.4879069424338693
0.42129832413530616,-3.676823938724034,0.7340043062005853
0.42129832413530616,-3.676823938724034,-2.687336749325494
0.42129832413530616,-2.7134900750085333,0.7340043062005853
0.42129832413530616,-2.7134900750085333,-2.687336749325494
0.42129832413530616,-2.7134900750085333,-2.2179412037652133
0.42129832413530616,-2.7134900750085333,-2.165614713451306
0.42129832413530616,-2.7134900750085333,1.4879069424338693
0.42129832413530616,-2.2179412037652133,0.7340043062005853
0.42129832413530616,-2.2179412037652133,-2.687336749325494
0.42129832413530616,-2.2179412037652133,-2.165614713451306
0.42129832413530616,-2.2179412037652133,1.4879069424338693
0.42129832413530616,-2.165614713451306,0.7340043062005853
0.42129832413530616,-2.165614713451306,-2.687336749325494
0.42129832413530616,-2.165614713451306,1.4879069424338693
0.42129832413530616,1.4879069424338693,0.7340043062005853
0.42129832413530616,1.4879069424338693,-2.687336749325494
0.42129832413530616,0.7340043062005853,-2.687336749325494
-0.1289556367927944,-0.7018881718715667,-3.676823938724034
-0.1289556367927944,-0.7018881718715667,-2.7134900750085333
-0.1289556367927944,-0.7018881718715667,-2.2179412037652133
-0.1289556367927944,-0.7018881718715667,-2.165614713451306
-0.1289556367927944,-0.7018881718715667,1.4879069424338693
-0.1289556367927944,-0.7018881718715667,0.7340043062005853
-0.1289556367927944,-0.7018881718715667,-2.687336749325494
-0.1289556367927944,-3.676823938724034,-2.7134900750085333
-0.1289556367927944,-3.676823938724034,-2.2179412037652133
-0.1289556367927944,-3.676823938724034,-2.165614713451306
-0.1289556367927944,-3.676823938724034,1.4879069424338693
-0.1289556367927944,-3.676823938724034,0.7340043062005853
-0.1289556367927944,-3.676823938724034,-2.687336749325494
-0.1289556367927944,-2.7134900750085333,0.7340043062005853
-0.1289556367927944,-2.7134900750085333,-2.687336749325494
-0.1289556367927944,-2.7134900750085333,-2.2179412037652133
-0.1289556367927944,-2.7134900750085333,-2.165614713451306
-0.1289556367927944,-2.7134900750085333,1.4879069424338693
-0.1289556367927944,-2.2179412037652133,0.7340043062005853
-0.1289556367927944,-2.2179412037652133,-2.687336749325494
-0.1289556367927944,-2.2179412037652133,-2.165614713451306
-0.1289556367927944,-2.2179412037652133,1.4879069424338693
-0.1289556367927944,-2.165614713451306,0.7340043062005853
-0.1289556367927944,-2.165614713451306,-2.687336749325494
-0.1289556367927944,-2.165614713451306,1.4879069424338693
-0.1289556367927944,1.4879069424338693,0.7340043062005853
-0.1289556367927944,1.4879069424338693,-2.687336749325494
-0.1289556367927944,0.7340043062005853,-2.687336749325494
-0.7018881718715667,-3.676823938724034,-2.7134900750085333
-0.7018881718715667,-3.676823938724034,-2.2179412037652133
-0.7018881718715667,-3.676823938724034,-2.165614713451306
-0.7018881718715667,-3.676823938724034,1.4879069424338693
-0.7018881718715667,-3.676823938724034,0.7340043062005853
-0.7018881718715667,-3.676823938724034,-2.687336749325494
-0.7018881718715667,-2.7134900750085333,0.7340043062005853
-0.7018881718715667,-2.7134900750085333,-2.687336749325494
-0.7018881718715667,-2.7134900750085333,-2.2179412037652133
-0.7018881718715667,-2.7134900750085333,-2.165614713451306
-0.7018881718715667,-2.7134900750085333,1.4879069424338693
-0.7018881718715667,-2.2179412037652133,0.7340043062005853
-0.7018881718715667,-2.2179412037652133,-2.687336749325494
-0.7018881718715667,-2.2179412037652133,-2.165614713451306
-0.7018881718715667,-2.2179412037652133,1.4879069424338693
-0.7018881718715667,-2.165614713451306,0.7340043062005853
-0.7018881718715667,-2.165614713451306,-2.687336749325494
-0.7018881718715667,-2.165614713451306,1.4879069424338693
-0.7018881718715667,1.4879069424338693,0.7340043062005853
-0.7018881718715667,1.4879069424338693,-2.687336749325494
-0.7018881718715667,0.7340043062005853,-2.687336749325494
-3.676823938724034,-2.7134900750085333,0.7340043062005853
-3.676823938724034,-2.7134900750085333,-2.687336749325494
-3.676823938724034,-2.7134900750085333,-2.2179412037652133
-3.676823938724034,-2.7134900750085333,-2.165614713451306
-3.676823938724034,-2.7134900750085333,1.4879069424338693
-3.676823938724034,-2.2179412037652133,0.7340043062005853
-3.676823938724034,-2.2179412037652133,-2.687336749325494
-3.676823938724034,-2.2179412037652133,-2.165614713451306
-3.676823938724034,-2.2179412037652133,1.4879069424338693
-3.676823938724034,-2.165614713451306,0.7340043062005853
-3.676823938724034,-2.165614713451306,-2.687336749325494
-3.676823938724034,-2.165614713451306,1.4879069424338693
-3.676823938724034,1.4879069424338693,0.7340043062005853
-3.676823938724034,1.4879069424338693,-2.687336749325494
-3.676823938724034,0.7340043062005853,-2.687336749325494
-2.7134900750085333,0.7340043062005853,-2.687336749325494
-2.7134900750085333,-2.2179412037652133,0.7340043062005853
-2.7134900750085333,-2.2179412037652133,-2.687336749325494
-2.7134900750085333,-2.2179412037652133,-2.165614713451306
-2.7134900750085333,-2.2179412037652133,1.4879069424338693
-2.7134900750085333,-2.165614713451306,0.7340043062005853
-2.7134900750085333,-2.165614713451306,-2.687336749325494
-2.7134900750085333,-2.165614713451306,1.4879069424338693
-2.7134900750085333,1.4879069424338693,0.7340043062005853
-2.7134900750085333,1.4879069424338693,-2.687336749325494
-2.2179412037652133,0.7340043062005853,-2.687336749325494
-2.2179412037652133,-2.165614713451306,0.7340043062005853
-2.2179412037652133,-2.165614713451306,-2.687336749325494
-2.2179412037652133,-2.165614713451306,1.4879069424338693
-2.2179412037652133,1.4879069424338693,0.7340043062005853
-2.2179412037652133,1.4879069424338693,-2.687336749325494
-2.165614713451306,0.7340043062005853,-2.687336749325494
-2.165614713451306,1.4879069424338693,0.7340043062005853
-2.165614713451306,1.4879069424338693,-2.687336749325494
1.4879069424338693,0.7340043062005853,-2.687336749325494
