0,1,2
-1.2137133329056797,0.33330848872512686,-3.640059364892191
-1.2137133329056797,0.33330848872512686,3.375277816951482
-1.2137133329056797,0.33330848872512686,-0.09404231402058993
-1.2137133329056797,0.33330848872512686,0.45984593459983286
-1.2137133329056797,0.33330848872512686,3.1856705350624783
-1.2137133329056797,0.33330848872512686,-0.27464728625218815
-1.2137133329056797,0.33330848872512686,0.9673174409325916
-1.2137133329056797,0.33330848872512686,1.5517010148895596
-1.2137133329056797,-3.640059364892191,3.375277816951482
-1.2137133329056797,-3.640059364892191,-0.09404231402058993
-1.2137133329056797,-3.640059364892191,0.45984593459983286
-1.2137133329056797,-3.640059364892191,3.1856705350624783
-1.2137133329056797,-3.640059364892191,-0.27464728625218815
-1.2137133329056797,-3.640059364892191,0.9673174409325916
-1.2137133329056797,-3.640059364892191,1.5517010148895596
-1.2137133329056797,3.375277816951482,-0.09404231402058993
-1.2137133329056797,3.375277816951482,0.45984593459983286
-1.2137133329056797,3.375277816951482,3.1856705350624783
-1.2137133329056797,3.375277816951482,-0.27464728625218815
-1.2137133329056797,3.375277816951482,0.9673174409325916
-1.2137133329056797,3.375277816951482,1.5517010148895596
-1.2137133329056797,-0.09404231402058993,0.9673174409325916
-1.2137133329056797,-0.09404231402058993,1.5517010148895596
-1.2137133329056797,-0.09404231402058993,0.45984593459983286
-1.2137133329056797,-0.09404231402058993,3.1856705350624783
-1.2137133329056797,-0.09404231402058993,-0.27464728625218815
-1.2137133329056797,0.45984593459983286,0.9673174409325916
-1.2137133329056797,0.45984593459983286,1.5517010148895596
-1.2137133329056797,0.45984593459983286,3.1856705350624783
-1.2137133329056797,0.45984593459983286,-0.27464728625218815
-1.2137133329056797,3.1856705350624783,0.9673174409325916
-1.2137133329056797,3.1856705350624783,1.5517010148895596
-1.2137133329056797,3.1856705350624783,-0.27464728625218815
-1.2137133329056797,-0.27464728625218815,0.9673174409325916
-1.2137133329056797,-0.27464728625218815,1.5517010148895596
-1.2137133329056797,0.9673174409325916,1.5517010148895596
0.33330848872512686,-3.640059364892191,3.375277816951482
0.33330848872512686,-3.640059364892191,-0.09404231402058993
0.33330848872512686,-3.640059364892191,0.45984593459983286
0.33330848872512686,-3.640059364892191,3.1856705350624783
0.33330848872512686,-3.640059364892191,-0.27464728625218815
0.33330848872512686,-3.640059364892191,0.9673174409325916
0.33330848872512686,-3.640059364892191,1.5517010148895596
0.33330848872512686,3.375277816951482,-0.09404231402058993
0.33330848872512686,3.375277816951482,0.45984593459983286
0.33330848872512686,3.375277816951482,3.1856705350624783
0.33330848872512686,3.375277816951482,-0.27464728625218815
0.33330848872512686,3.375277816951482,0.9673174409325916
0.33330848872512686,3.375277816951482,1.5517010148895596
0.33330848872512686,-0.09404231402058993,0.9673174409325916
0.33330848872512686,-0.09404231402058993,1.5517010148895596
0.33330848872512686,-0.09404231402058993,0.45984593459983286
0.33330848872512686,-0.09404231402058993,3.1856705350624783
0.33330848872512686,-0.09404231402058993,-0.27464728625218815
0.33330848872512686,0.45984593459983286,0.9673174409325916
0.33330848872512686,0.45984593459983286,1.5517010148895596
0.33330848872512686,0.45984593459983286,3.1856705350624783
0.33330848872512686,0.45984593459983286,-0.27464728625218815
0.33330848872512686,3.1856705350624783,0.9673174409325916
0.33330848872512686,3.1856705350624783,1.5517010148895596
0.33330848872512686,3.1856705350624783,-0.27464728625218815
0.33330848872512686,-0.27464728625218815,0.9673174409325916
0.33330848872512686,-0.27464728625218815,1.5517010148895596
0.33330848872512686,0.9673174409325916,1.5517010148895596
-3.640059364892191,3.375277816951482,-0.09404231402058993
-3.640059364892191,3.375277816951482,0.45984593459983286
-3.640059364892191,3.375277816951482,3.1856705350624783
-3.640059364892191,3.375277816951482,-0.27464728625218815
-3.640059364892191,3.375277816951482,0.9673174409325916
-3.640059364892191,3.375277816951482,1.5517010148895596
-3.640059364892191,-0.09404231402058993,0.9673174409325916
-3.640059364892191,-0.09404231402058993,1.5517010148895596
-3.640059364892191,-0.09404231402058993,0.45984593459983286
-3.640059364892191,-0.09404231402058993,3.1856705350624783
-3.640059364892191,-0.09404231402058993,-0.27464728625218815
-3.640059364892191,0.45984593459983286,0.9673174409325916
-3.640059364892191,0.45984593459983286,1.5517010148895596
-3.640059364892191,0.45984593459983286,3.1856705350624783
-3.640059364892191,0.45984593459983286,-0.27464728625218815
-3.640059364892191,3.1856705350624783,0.9673174409325916
-3.640059364892191,3.1856705350624783,1.5517010148895596
-3.640059364892191,3.1856705350624783,-0.27464728625218815
-3.640059364892191,-0.27464728625218815,0.9673174409325916
-3.640059364892191,-0.27464728625218815,1.5517010148895596
-3.640059364892191,0.9673174409325916,1.5517010148895596
3.375277816951482,-0.09404231402058993,0.9673174409325916
3.375277816951482,-0.09404231402058993,1.5517010148895596
3.375277816951482,-0.09404231402058993,0.45984593459983286
3.375277816951482,-0.09404231402058993,3.1856705350624783
3.375277816951482,-0.09404231402058993,-0.27464728625218815
3.375277816951482,0.45984593459983286,0.9673174409325916
3.375277816951482,0.45984593459983286,1.5517010148895596
3.375277816951482,0.45984593459983286,3.1856705350624783
3.375277816951482,0.45984593459983286,-0.27464728625218815
3.375277816951482,3.1856705350624783,0.9673174409325916
3.375277816951482,3.1856705350624783,1.5517010148895596
3.375277816951482,3.1856705350624783,-0.27464728625218815
3.375277816951482,-0.27464728625218815,0.9673174409325916
3.375277816951482,-0.27464728625218815,1.5517010148895596
3.375277816951482,0.9673174409325916,1.5517010148895596
-0.09404231402058993,0.9673174409325916,1.5517010148895596
-0.09404231402058993,0.45984593459983286,0.9673174409325916
-0.09404231402058993,0.45984593459983286,1.5517010148895596
-0.09404231402058993,0.45984593459983286,3.1856705350624783
-0.09404231402058993,0.45984593459983286,-0.27464728625218815
-0.09404231402058993,3.1856705350624783,0.9673174409325916
-0.09404231402058993,3.1856705350624783,1.5517010148895596
-0.09404231402058993,3.1856705350624783,-0.27464728625218815
-0.09404231402058993,-0.27464728625218815,0.9673174409325916
-0.09404231402058993,-0.27464728625218815,1.5517010148895596
0.45984593459983286,0.9673174409325916,1.5517010148895596
0.45984593459983286,3.1856705350624783,0.9673174409325916
0.45984593459983286,3.1856705350624783,1.5517010148895596
0.45984593459983286,3.1856705350624783,-0.27464728625218815
0.45984593459983286,-0.27464728625218815,0.9673174409325916
0.45984593459983286,-0.27464728625218815,1.5517010148895596
3.1856705350624783,0.9673174409325916,1.5517010148895596
3.1856705350624783,-0.27464728625218815,0.9673174409325916
3.1856705350624783,-0.27464728625218815,1.5517010148895596
-0.27464728625218815,0.9673174409325916,1.5517010148895596
