0,1,2
-2.9808315227824713,-2.0386575616793325,1.0514361887075065
-2.9808315227824713,-2.0386575616793325,3.1991836088513166
-2.9808315227824713,-2.0386575616793325,0.5781657779964295
-2.9808315227824713,-2.0386575616793325,-2.0900443408393605
-2.9808315227824713,-2.0386575616793325,-0.6334289011180855
-2.9808315227824713,-2.0386575616793325,-1.2010531225123433
-2.9808315227824713,-2.0386575616793325,-1.914584607760359
-2.9808315227824713,-2.0386575616793325,-1.088646999612866
-2.9808315227824713,1.0514361887075065,3.1991836088513166
-2.9808315227824713,1.0514361887075065,0.5781657779964295
-2.9808315227824713,1.0514361887075065,-2.0900443408393605
-2.9808315227824713,1.0514361887075065,-0.6334289011180855
-2.9808315227824713,1.0514361887075065,-1.2010531225123433
-2.9808315227824713,1.0514361887075065,-1.914584607760359
-2.9808315227824713,1.0514361887075065,-1.088646999612866
-2.9808315227824713,3.1991836088513166,0.5781657779964295
-2.9808315227824713,3.1991836088513166,-2.0900443408393605
-2.9808315227824713,3.1991836088513166,-0.6334289011180855
-2.9808315227824713,3.1991836088513166,-1.2010531225123433
-2.9808315227824713,3.1991836088513166,-1.914584607760359
-2.9808315227824713,3.1991836088513166,-1.088646999612866
-2.9808315227824713,0.5781657779964295,-1.914584607760359
-2.9808315227824713,0.5781657779964295,-1.088646999612866
-2.9808315227824713,0.5781657779964295,-2.0900443408393605
-2.9808315227824713,0.5781657779964295,-0.6334289011180855
-2.9808315227824713,0.5781657779964295,-1.2010531225123433
-2.9808315227824713,-2.0900443408393605,-1.914584607760359
-2.9808315227824713,-2.0900443408393605,-1.088646999612866
-2.9808315227824713,-2.0900443408393605,-0.6334289011180855
-2.9808315227824713,-2.0900443408393605,-1.2010531225123433
-2.9808315227824713,-0.6334289011180855,-1.914584607760359
-2.9808315227824713,-0.6334289011180855,-1.088646999612866
-2.9808315227824713,-0.6334289011180855,-1.2010531225123433
-2.9808315227824713,-1.2010531225123433,-1.914584607760359
-2.9808315227824713,-1.2010531225123433,-1.088646999612866
-2.9808315227824713,-1.914584607760359,-1.088646999612866
-2.0386575616793325,1.0514361887075065,3.1991836088513166
-2.0386575616793325,1.0514361887075065,0.5781657779964295
-2.0386575616793325,1.0514361887075065,-2.0900443408393605
-2.0386575616793325,1.0514361887075065,-0.6334289011180855
-2.0386575616793325,1.0514361887075065,-1.2010531225123433
-2.0386575616793325,1.0514361887075065,-1.914584607760359
-2.0386575616793325,1.0514361887075065,-1.088646999612866
-2.0386575616793325,3.1991836088513166,0.5781657779964295
-2.0386575616793325,3.1991836088513166,-2.0900443408393605
-2.0386575616793325,3.1991836088513166,-0.6334289011180855
-2.0386575616793325,3.1991836088513166,-1.2010531225123433
-2.0386575616793325,3.1991836088513166,-1.914584607760359
-2.0386575616793325,3.1991836088513166,-1.088646999612866
-2.0386575616793325,0.5781657779964295,-1.914584607760359
-2.0386575616793325,0.5781657779964295,-1.088646999612866
-2.0386575616793325,0.5781657779964295,-2.0900443408393605
-2.0386575616793325,0.5781657779964295,-0.6334289011180855
-2.0386575616793325,0.5781657779964295,-1.2010531225123433
-2.0386575616793325,-2.0900443408393605,-1.914584607760359
-2.0386575616793325,-2.0900443408393605,-1.088646999612866
-2.0386575616793325,-2.0900443408393605,-0.6334289011180855
-2.0386575616793325,-2.0900443408393605,-1.2010531225123433
-2.0386575616793325,-0.6334289011180855,-1.914584607760359
-2.0386575616793325,-0.6334289011180855,-1.088646999612866
-2.0386575616793325,-0.6334289011180855,-1.2010531225123433
-2.0386575616793325,-1.2010531225123433,-1.914584607760359
-2.0386575616793325,-1.2010531225123433,-1.088646999612866
-2.0386575616793325,-1.914584607760359,-1.088646999612866
1.0514361887075065,3.1991836088513166,0.5781657779964295
1.0514361887075065,3.1991836088513166,-2.0900443408393605
1.0514361887075065,3.1991836088513166,-0.6334289011180855
1.0514361887075065,3.1991836088513166,-1.2010531225123433
1.0514361887075065,3.1991836088513166,-1.914584607760359
1.0514361887075065,3.1991836088513166,-1.088646999612866
1.0514361887075065,0.5781657779964295,-1.914584607760359
1.0514361887075065,0.5781657779964295,-1.088646999612866
1.0514361887075065,0.5781657779964295,-2.0900443408393605
1.0514361887075065,0.5781657779964295,-0.6334289011180855
1.0514361887075065,0.5781657779964295,-1.2010531225123433
1.0514361887075065,-2.0900443408393605,-1.914584607760359
1.0514361887075065,-2.0900443408393605,-1.088646999612866
1.0514361887075065,-2.0900443408393605,-0.6334289011180855
1.0514361887075065,-2.0900443408393605,-1.2010531225123433
1.0514361887075065,-0.6334289011180855,-1.914584607760359
1.0514361887075065,-0.6334289011180855,-1.088646999612866
1.0514361887075065,-0.6334289011180855,-1.2010531225123433
1.0514361887075065,-1.2010531225123433,-1.914584607760359
1.0514361887075065,-1.2010531225123433,-1.088646999612866
1.0514361887075065,-1.914584607760359,-1.088646999612866
3.1991836088513166,0.5781657779964295,-1.914584607760359
3.1991836088513166,0.5781657779964295,-1.088646999612866
3.1991836088513166,0.5781657779964295,-2.0900443408393605
3.1991836088513166,0.5781657779964295,-0.6334289011180855
3.1991836088513166,0.5781657779964295,-1.2010531225123433
3.1991836088513166,-2.0900443408393605,-1.914584607760359
3.1991836088513166,-2.0900443408393605,-1.088646999612866
3.1991836088513166,-2.0900443408393605,-0.6334289011180855
3.1991836088513166,-2.0900443408393605,-1.2010531225123433
3.1991836088513166,-0.6334289011180855,-1.914584607760359
3.1991836088513166,-0.6334289011180855,-1.088646999612866
3.1991836088513166,-0.6334289011180855,-1.2010531225123433
3.1991836088513166,-1.2010531225123433,-1.914584607760359
3.1991836088513166,-1.2010531225123433,-1.088646999612866
3.1991836088513166,-1.914584607760359,-1.088646999612866
0.5781657779964295,-1.914584607760359,-1.088646999612866
0.5781657779964295,-2.0900443408393605,-1.914584607760359
0.5781657779964295,-2.0900443408393605,-1.088646999612866
0.5781657779964295,-2.0900443408393605,-0.6334289011180855
0.5781657779964295,-2.0900443408393605,-1.2010531225123433
0.5781657779964295,-0.6334289011180855,-1.914584607760359
0.5781657779964295,-0.6334289011180855,-1.088646999612866
0.5781657779964295,-0.6334289011180855,-1.2010531225123433
0.5781657779964295,-1.2010531225123433,-1.914584607760359
0.5781657779964295,-1.2010531225123433,-1.088646999612866
-2.0900443408393605,-1.914584607760359,-1.088646999612866
-2.0900443408393605,-0.6334289011180855,-1.914584607760359
-2.0900443408393605,-0.6334289011180855,-1.088646999612866
-2.0900443408393605,-0.6334289011180855,-1.2010531225123433
-2.0900443408393605,-1.2010531225123433,-1.914584607760359
-2.0900443408393605,-1.2010531225123433,-1.088646999612866
-0.6334289011180855,-1.914584607760359,-1.088646999612866
-0.6334289011180855,-1.2010531225123433,-1.914584607760359
-0.6334289011180855,-1.2010531225123433,-1.088646999612866
-1.2010531225123433,-1.914584607760359,-1.088646999612866
