0,1,2
-1.6636219589894354,1.7235506909886318,-3.7518951470906874
-1.6636219589894354,1.7235506909886318,2.9108234384025042
-1.6636219589894354,1.7235506909886318,-0.9101460577252688
-1.6636219589894354,1.7235506909886318,-1.677184551925025
-1.6636219589894354,1.7235506909886318,-0.774405150409952
-1.6636219589894354,1.7235506909886318,0.7317206262636806
-1.6636219589894354,1.7235506909886318,0.20578983906470635
-1.6636219589894354,1.7235506909886318,-0.33070315757468954
-1.6636219589894354,-3.7518951470906874,2.9108234384025042
-1.6636219589894354,-3.7518951470906874,-0.9101460577252688
-1.6636219589894354,-3.7518951470906874,-1.677184551925025
-1.6636219589894354,-3.7518951470906874,-0.774405150409952
-1.6636219589894354,-3.7518951470906874,0.7317206262636806
-1.6636219589894354,-3.7518951470906874,0.20578983906470635
-1.6636219589894354,-3.7518951470906874,-0.33070315757468954
-1.6636219589894354,2.9108234384025042,-0.9101460577252688
-1.6636219589894354,2.9108234384025042,-1.677184551925025
-1.6636219589894354,2.9108234384025042,-0.774405150409952
-1.6636219589894354,2.9108234384025042,0.7317206262636806
-1.6636219589894354,2.9108234384025042,0.20578983906470635
-1.6636219589894354,2.9108234384025042,-0.33070315757468954
-1.6636219589894354,-0.9101460577252688,0.20578983906470635
-1.6636219589894354,-0.9101460577252688,-0.33070315757468954
-1.6636219589894354,-0.9101460577252688,-1.677184551925025
-1.6636219589894354,-0.9101460577252688,-0.774405150409952
-1.6636219589894354,-0.9101460577252688,0.7317206262636806
-1.6636219589894354,-1.677184551925025,0.20578983906470635
-1.6636219589894354,-1.677184551925025,-0.33070315757468954
-1.6636219589894354,-1.677184551925025,-0.774405150409952
-1.6636219589894354,-1.677184551925025,0.7317206262636806
-1.6636219589894354,-0.774405150409952,0.20578983906470635
-1.6636219589894354,-0.774405150409952,-0.33070315757468954
-1.6636219589894354,-0.774405150409952,0.7317206262636806
-1.6636219589894354,0.7317206262636806,0.20578983906470635
-1.6636219589894354,0.7317206262636806,-0.33070315757468954
-1.6636219589894354,0.20578983906470635,-0.33070315757468954
1.7235506909886318,-3.7518951470906874,2.9108234384025042
1.7235506909886318,-3.7518951470906874,-0.9101460577252688
1.7235506909886318,-3.7518951470906874,-1.677184551925025
1.7235506909886318,-3.7518951470906874,-0.774405150409952
1.7235506909886318,-3.7518951470906874,0.7317206262636806
1.7235506909886318,-3.7518951470906874,0.20578983906470635
1.7235506909886318,-3.7518951470906874,-0.33070315757468954
1.7235506909886318,2.9108234384025042,-0.9101460577252688
1.7235506909886318,2.9108234384025042,-1.677184551925025
1.7235506909886318,2.9108234384025042,-0.774405150409952
1.7235506909886318,2.9108234384025042,0.7317206262636806
1.7235506909886318,2.9108234384025042,0.20578983906470635
1.7235506909886318,2.9108234384025042,-0.33070315757468954
1.7235506909886318,-0.9101460577252688,0.20578983906470635
1.7235506909886318,-0.9101460577252688,-0.33070315757468954
1.7235506909886318,-0.9101460577252688,-1.677184551925025
1.7235506909886318,-0.9101460577252688,-0.774405150409952
1.7235506909886318,-0.9101460577252688,0.7317206262636806
1.7235506909886318,-1.677184551925025,0.20578983906470635
1.7235506909886318,-1.677184551925025,-0.33070315757468954
1.7235506909886318,-1.677184551925025,-0.774405150409952
1.7235506909886318,-1.677184551925025,0.7317206262636806
1.7235506909886318,-0.774405150409952,0.20578983906470635
1.7235506909886318,-0.774405150409952,-0.33070315757468954
1.7235506909886318,-0.774405150409952,0.7317206262636806
1.7235506909886318,0.7317206262636806,0.20578983906470635
1.7235506909886318,0.7317206262636806,-0.33070315757468954
1.7235506909886318,0.20578983906470635,-0.33070315757468954
-3.7518951470906874,2.9108234384025042,-0.9101460577252688
-3.7518951470906874,2.9108234384025042,-1.677184551925025
-3.7518951470906874,2.9108234384025042,-0.774405150409952
-3.7518951470906874,2.9108234384025042,0.7317206262636806
-3.7518951470906874,2.9108234384025042,0.20578983906470635
-3.7518951470906874,2.9108234384025042,-0.33070315757468954
-3.7518951470906874,-0.9101460577252688,0.20578983906470635
-3.7518951470906874,-0.9101460577252688,-0.33070315757468954
-3.7518951470906874,-0.9101460577252688,-1.677184551925025
-3.7518951470906874,-0.9101460577252688,-0.774405150409952
-3.7518951470906874,-0.9101460577252688,0.7317206262636806
-3.7518951470906874,-1.677184551925025,0.20578983906470635
-3.7518951470906874,-1.677184551925025,-0.33070315757468954
-3.7518951470906874,-1.677184551925025,-0.774405150409952
-3.7518951470906874,-1.677184551925025,0.7317206262636806
-3.7518951470906874,-0.774405150409952,0.20578983906470635
-3.7518951470906874,-0.774405150409952,-0.33070315757468954
-3.7518951470906874,-0.774405150409952,0.7317206262636806
-3.7518951470906874,0.7317206262636806,0.20578983906470635
-3.7518951470906874,0.7317206262636806,-0.33070315757468954
-3.7518951470906874,0.20578983906470635,-0.33070315757468954
2.9108234384025042,-0.9101460577252688,0.20578983906470635
2.9108234384025042,-0.9101460577252688,-0.33070315757468954
2.9108234384025042,-0.9101460577252688,-1.677184551925025
2.9108234384025042,-0.9101460577252688,-0.774405150409952
2.9108234384025042,-0.9101460577252688,0.7317206262636806
2.9108234384025042,-1.677184551925025,0.20578983906470635
2.9108234384025042,-1.677184551925025,-0.33070315757468954
2.9108234384025042,-1.677184551925025,-0.774405150409952
2.9108234384025042,-1.677184551925025,0.7317206262636806
2.9108234384025042,-0.774405150409952,0.20578983906470635
2.9108234384025042,-0.774405150409952,-0.33070315757468954
2.9108234384025042,-0.774405150409952,0.7317206262636806
2.9108234384025042,0.7317206262636806,0.20578983906470635
2.9108234384025042,0.7317206262636806,-0.33070315757468954
2.9108234384025042,0.20578983906470635,-0.33070315757468954
-0.9101460577252688,0.20578983906470635,-0.33070315757468954
-0.9101460577252688,-1.677184551925025,0.20578983906470635
-0.9101460577252688,-1.677184551925025,-0.33070315757468954
-0.9101460577252688,-1.677184551925025,-0.774405150409952
-0.9101460577252688,-1.677184551925025,0.7317206262636806
-0.9101460577252688,-0.774405150409952,0.20578983906470635
-0.9101460577252688,-0.774405150409952,-0.33070315757468954
-0.9101460577252688,-0.774405150409952,0.7317206262636806
-0.9101460577252688,0.7317206262636806,0.20578983906470635
-0.9101460577252688,0.7317206262636806,-0.33070315757468954
-1.677184551925025,0.20578983906470635,-0.33070315757468954
-1.677184551925025,-0.774405150409952,0.20578983906470635
-1.677184551925025,-0.774405150409952,-0.33070315757468954
-1.677184551925025,-0.774405150409952,0.7317206262636806
-1.677184551925025,0.7317206262636806,0.20578983906470635
-1.677184551925025,0.7317206262636806,-0.33070315757468954
-0.774405150409952,0.20578983906470635,-0.33070315757468954
-0.774405150409952,0.7317206262636806,0.20578983906470635
-0.774405150409952,0.7317206262636806,-0.33070315757468954
0.7317206262636806,0.20578983906470635,-0.33070315757468954
