0,1,2
0.5310574182043002,-0.6473196138075881,3.2660185238625665
0.5310574182043002,-0.6473196138075881,-0.9824686938426339
0.5310574182043002,-0.6473196138075881,-1.277031234114916
0.5310574182043002,-0.6473196138075881,-0.04951957048016157
0.5310574182043002,-0.6473196138075881,-1.2287693419239807
0.5310574182043002,-0.6473196138075881,1.7261660697360193
0.5310574182043002,-0.6473196138075881,1.0633205066886842
0.5310574182043002,-0.6473196138075881,-1.262364149909529
0.5310574182043002,3.2660185238625665,-0.9824686938426339
0.5310574182043002,3.2660185238625665,-1.277031234114916
0.5310574182043002,3.2660185238625665,-0.04951957048016157
0.5310574182043002,3.2660185238625665,-1.2287693419239807
0.5310574182043002,3.2660185238625665,1.7261660697360193
0.5310574182043002,3.2660185238625665,1.0633205066886842
0.5310574182043002,3.2660185238625665,-1.262364149909529
0.5310574182043002,-0.9824686938426339,-1.277031234114916
0.5310574182043002,-0.9824686938426339,-0.04951957048016157
0.5310574182043002,-0.9824686938426339,-1.2287693419239807
0.5310574182043002,-0.9824686938426339,1.7261660697360193
0.5310574182043002,-0.9824686938426339,1.0633205066886842
0.5310574182043002,-0.9824686938426339,-1.262364149909529
0.5310574182043002,-1.277031234114916,1.0633205066886842
0.5310574182043002,-1.277031234114916,-1.262364149909529
0.5310574182043002,-1.277031234114916,-0.04951957048016157
0.5310574182043002,-1.277031234114916,-1.2287693419239807
0.5310574182043002,-1.277031234114916,1.7261660697360193
0.5310574182043002,-0.04951957048016157,1.0633205066886842
0.5310574182043002,-0.04951957048016157,-1.262364149909529
0.5310574182043002,-0.04951957048016157,-1.2287693419239807
0.5310574182043002,-0.04951957048016157,1.7261660697360193
0.5310574182043002,-1.2287693419239807,1.0633205066886842
0.5310574182043002,-1.2287693419239807,-1.262364149909529
0.5310574182043002,-1.2287693419239807,1.7261660697360193
0.5310574182043002,1.7261660697360193,1.0633205066886842
0.5310574182043002,1.7261660697360193,-1.262364149909529
0.5310574182043002,1.0633205066886842,-1.262364149909529
-0.6473196138075881,3.2660185238625665,-0.9824686938426339
-0.6473196138075881,3.2660185238625665,-1.277031234114916
-0.6473196138075881,3.2660185238625665,-0.04951957048016157
-0.6473196138075881,3.2660185238625665,-1.2287693419239807
-0.6473196138075881,3.2660185238625665,1.7261660697360193
-0.6473196138075881,3.2660185238625665,1.0633205066886842
-0.6473196138075881,3.2660185238625665,-1.262364149909529
-0.6473196138075881,-0.9824686938426339,-1.277031234114916
-0.6473196138075881,-0.9824686938426339,-0.04951957048016157
-0.6473196138075881,-0.9824686938426339,-1.2287693419239807
-0.6473196138075881,-0.9824686938426339,1.7261660697360193
-0.6473196138075881,-0.9824686938426339,1.0633205066886842
-0.6473196138075881,-0.9824686938426339,-1.262364149909529
-0.6473196138075881,-1.277031234114916,1.0633205066886842
-0.6473196138075881,-1.277031234114916,-1.262364149909529
-0.6473196138075881,-1.277031234114916,-0.04951957048016157
-0.6473196138075881,-1.277031234114916,-1.2287693419239807
-0.6473196138075881,-1.277031234114916,1.7261660697360193
-0.6473196138075881,-0.04951957048016157,1.0633205066886842
-0.6473196138075881,-0.04951957048016157,-1.262364149909529
-0.6473196138075881,-0.04951957048016157,-1.2287693419239807
-0.6473196138075881,-0.04951957048016157,1.7261660697360193
-0.6473196138075881,-1.2287693419239807,1.0633205066886842
-0.6473196138075881,-1.2287693419239807,-1.262364149909529
-0.6473196138075881,-1.2287693419239807,1.7261660697360193
-0.6473196138075881,1.7261660697360193,1.0633205066886842
-0.6473196138075881,1.7261660697360193,-1.262364149909529
-0.6473196138075881,1.0633205066886842,-1.262364149909529
3.2660185238625665,-0.9824686938426339,-1.277031234114916
3.2660185238625665,-0.9824686938426339,-0.04951957048016157
3.2660185238625665,-0.9824686938426339,-1.2287693419239807
3.2660185238625665,-0.9824686938426339,1.7261660697360193
3.2660185238625665,-0.9824686938426339,1.0633205066886842
3.2660185238625665,-0.9824686938426339,-1.262364149909529
3.2660185238625665,-1.277031234114916,1.0633205066886842
3.2660185238625665,-1.277031234114916,-1.262364149909529
3.2660185238625665,-1.277031234114916,-0.04951957048016157
3.2660185238625665,-1.277031234114916,-1.2287693419239807
3.2660185238625665,-1.277031234114916,1.7261660697360193
3.2660185238625665,-0.04951957048016157,1.0633205066886842
3.2660185238625665,-0.04951957048016157,-1.262364149909529
3.2660185238625665,-0.04951957048016157,-1.2287693419239807
3.2660185238625665,-0.04951957048016157,1.7261660697360193
3.2660185238625665,-1.2287693419239807,1.0633205066886842
3.2660185238625665,-1.2287693419239807,-1.262364149909529
3.2660185238625665,-1.2287693419239807,1.7261660697360193
3.2660185238625665,1.7261660697360193,1.0633205066886842
3.2660185238625665,1.7261660697360193,-1.262364149909529
3.2660185238625665,1.0633205066886842,-1.262364149909529
-0.9824686938426339,-1.277031234114916,1.0633205066886842
-0.9824686938426339,-1.277031234114916,-1.262364149909529
-0.9824686938426339,-1.277031234114916,-0.04951957048016157
-0.9824686938426339,-1.277031234114916,-1.2287693419239807
-0.9824686938426339,-1.277031234114916,1.7261660697360193
-0.9824686938426339,-0.04951957048016157,1.0633205066886842
-0.9824686938426339,-0.04951957048016157,-1.262364149909529
-0.9824686938426339,-0.04951957048016157,-1.2287693419239807
-0.9824686938426339,-0.04951957048016157,1.7261660697360193
-0.9824686938426339,-1.2287693419239807,1.0633205066886842
-0.9824686938426339,-1.2287693419239807,-1.262364149909529
-0.9824686938426339,-1.2287693419239807,1.7261660697360193
-0.9824686938426339,1.7261660697360193,1.0633205066886842
-0.9824686938426339,1.7261660697360193,-1.262364149909529
-0.9824686938426339,1.0633205066886842,-1.262364149909529
-1.277031234114916,1.0633205066886842,-1.262364149909529
-1.277031234114916,-0.04951957048016157,1.0633205066886842
-1.277031234114916,-0.04951957048016157,-1.262364149909529
-1.277031234114916,-0.04951957048016157,-1.2287693419239807
-1.277031234114916,-0.04951957048016157,1.7261660697360193
-1.277031234114916,-1.2287693419239807,1.0633205066886842
-1.277031234114916,-1.2287693419239807,-1.262364149909529
-1.277031234114916,-1.2287693419239807,1.7261660697360193
-1.277031234114916,1.7261660697360193,1.0633205066886842
-1.277031234114916,1.7261660697360193,-1.262364149909529
-0.04951957048016157,1.0633205066886842,-1.262364149909529
-0.04951957048016157,-1.2287693419239807,1.0633205066886842
-0.04951957048016157,-1.2287693419239807,-1.262364149909529
-0.04951957048016157,-1.2287693419239807,1.7261660697360193
-0.04951957048016157,1.7261660697360193,1.0633205066886842
-0.04951957048016157,1.7261660697360193,-1.262364149909529
-1.2287693419239807,1.0633205066886842,-1.262364149909529
-1.2287693419239807,1.7261660697360193,1.0633205066886842
-1.2287693419239807,1.7261660697360193,-1.262364149909529
1.7261660697360193,1.0633205066886842,-1.262364149909529
